NCOLS 225
NROWS 31
XLLCORNER 249990
YLLCORNER 6236100
CELLSIZE 90 
NODATA_value -9999 
-9999 -9999 -9999 -9999 -9999 -9999 -9999 -9999 -9999 -9999 -9999 -9999 -9999 -9999 -9999 -9999 -9999 -9999 -9999 -9999 -9999 -9999 -9999 -9999 -9999 -9999 -9999 -9999 -9999 -9999 -9999 -9999 -9999 -9999 -9999 -9999 -9999 -9999 -9999 -9999 -9999 -9999 -9999 -9999 -9999 -9999 -9999 -9999 -9999 -9999 -9999 -9999 -9999 -9999 -9999 -9999 -9999 -9999 -9999 -9999 -9999 -9999 -9999 -9999 -9999 -9999 -9999 -9999 -9999 -9999 -9999 -9999 -9999 -9999 -9999 -9999 -9999 -9999 -9999 2.35600028708577 7.29717556635539 15.4034390979343 28.2112672593858 42.4686431884766 53.8469458685981 62.9997745090061 71.1363966200087 79.551144917806 99.1255408393012 128.282715691461 153.591218736437 178.037828233507 193.208577473958 207.109439425998 222.900863647461 235.021004570855 248.038243611654 268.257514105903 291.574937608507 313.084706624349 329.8343878852 345.541307237413 376.723022460938 403.141170925564 421.223809136285 446.019449869792 489.14155069987 507.285597059462 504.05133734809 520.289855957031 598.49319797092 684.604085286458 747.988593207465 857.590094672309 946.970852322049 1027.78725857205 1051.79338921441 1059.55041503906 1061.85237630208 1061.42857530382 1061.3252360026 1062.46324327257 1063.20340983073 1063.72403971354 1064.59224446615 1066.21721733941 1069.89609103733 1075.62384711372 1076.73974609375 1067.76657443576 1063.33869086372 1062.58878580729 1060.52871365017 1058.42982313368 1054.6126030816 1036.11366102431 1024.40863037109 1023.3660007053 1019.63491482205 875.21198187934 768.08782280816 685.211676703559 578.11174858941 485.36535305447 446.482571072049 414.607499864366 382.387135823568 352.221018473307 326.95361328125 302.426991780599 280.473120795356 266.39266289605 265.784861246745 258.437127007378 238.264467027452 225.745208740234 208.815065171983 197.844982571072 186.47274102105 173.979488796658 160.347412109375 144.96610683865 129.778399997287 119.082780626085 108.897768656413 102.277139451769 94.0028076171875 87.535407172309 78.7518810696072 73.7960272894965 64.6413989596897 56.4935752020942 50.5115398830838 44.7420221964518 37.4146376715766 32.57626024882 24.8196245829264 19.0170870886909 16.1952301661173 12.5918230480618 11.211909506056 11.3843023512099 13.949043697781 16.8210679160224 19.4995657602946 21.3045177459717 21.6017835405138 21.9513331519233 22.5158723195394 21.0951355828179 17.8880416022407 14.0989425447252 11.8383185068766 10.874149746365 10.4178933037652 10.6224907769097 8.54905965593126 10.5193274815877 14.364570511712 15.9408542844984 16.5635030534532 16.6544154485067 15.1995446946886 13.8107953601413 11.1557343800863 6.9035087161594 6.9802041583591 8.55382707383898 12.158136261834 13.4893192715115 13.6880237791273 13.6455795500014 13.2746121088664 12.3482534620497 10.4998849232992 9.81236161126031 9.23481612735324 9.14346080356174 9.22183810340034 10.1001097361247 10.7560472488403 11.2955652872721 11.3232312732273 11.3044454786513 10.8879683812459
-9999 -9999 -9999 -9999 -9999 -9999 -9999 -9999 -9999 -9999 -9999 -9999 -9999 -9999 -9999 -9999 -9999 -9999 -9999 -9999 -9999 -9999 -9999 -9999 -9999 -9999 -9999 -9999 -9999 -9999 -9999 -9999 -9999 -9999 -9999 -9999 -9999 -9999 -9999 -9999 -9999 -9999 -9999 -9999 -9999 -9999 -9999 -9999 -9999 -9999 -9999 -9999 -9999 -9999 -9999 -9999 -9999 -9999 -9999 -9999 -9999 -9999 -9999 -9999 -9999 -9999 -9999 -9999 -9999 -9999 -9999 -9999 -9999 -9999 -9999 -9999 -9999 -9999 -9999 1.94043302536011 2.45994069675604 14.7417251004113 30.7618679470486 43.423227098253 55.6550784640842 67.5767894321018 77.7944912380642 89.0190582275391 113.186937967936 134.196671379937 158.986646864149 184.818851047092 203.67549472385 219.137976752387 241.833524915907 250.484780205621 255.505510118273 279.152971055773 310.604851616753 332.254438612196 355.372236463759 383.880761040582 429.399288601345 457.776031494141 497.917636447483 498.498677571615 572.509779188368 607.554124620226 603.0146484375 615.029602050781 608.028856065538 636.104295518663 718.403767903646 827.858642578125 952.569288465712 1001.20917426215 1028.66680230035 1046.33131239149 1053.84233940972 1053.48181152344 1054.81395128038 1056.06144205729 1056.69905598958 1057.00337727865 1057.26071506076 1058.94006347656 1061.6735297309 1067.3952094184 1068.1875406901 1065.72207302517 1066.61121961806 1068.93678114149 1067.02951388889 1066.3799235026 1060.71067979601 1048.03743489583 1035.12409125434 1034.24886067708 1028.97824435764 885.871053059896 779.031127929688 710.065002441406 625.20741780599 527.114807128906 425.890536838108 385.501915825738 361.097720675998 335.768402099609 312.502990722656 290.725545247396 270.879085964627 250.223297119141 235.685402764214 233.721903483073 220.543112860786 208.289972941081 193.42328898112 183.209260728624 173.605560302734 162.24813164605 148.341466267904 138.726542154948 128.390280829536 111.673823886447 100.964684380425 92.4636501736111 84.1440751817491 78.7919133504232 73.1509102715386 67.5567559136285 62.4007436964247 54.2016614278158 47.5831125047472 41.005419837104 34.704950120714 30.0504430135091 24.4765656789144 19.2674003177219 15.223810089959 12.4228456285265 12.5575774510701 12.9024445215861 15.1939294603136 18.4295518663194 20.3705628712972 21.6416789160834 21.6155626508925 21.6483442518446 21.7072353363037 20.8948735131158 16.5878507826063 11.2708406448364 10.0057157940335 9.54518985748291 9.71451759338379 9.75611866845025 10.9026673634847 14.0362284978231 16.9381980895996 18.2025600009494 18.3530055152045 18.2102711995443 16.3970580630832 14.3406183454725 11.8165808783637 7.31545495986938 7.11322164535522 9.53044329749213 12.7676437166002 14.2012650171916 13.8911585277981 13.715156979031 13.5963559680515 13.1710231569078 11.4059813817342 10.4692192077637 9.86802048153347 9.56342368655734 9.51933108435737 10.5210809707642 10.9603172938029 11.3657304975722 11.3619778951009 11.2915440665351 10.9124937057495
-9999 -9999 -9999 -9999 -9999 -9999 -9999 -9999 -9999 -9999 -9999 -9999 -9999 -9999 -9999 -9999 -9999 -9999 -9999 -9999 -9999 -9999 -9999 -9999 -9999 -9999 -9999 -9999 -9999 -9999 -9999 -9999 -9999 -9999 -9999 -9999 -9999 -9999 -9999 -9999 -9999 -9999 -9999 -9999 -9999 -9999 -9999 -9999 -9999 -9999 -9999 -9999 -9999 -9999 -9999 -9999 -9999 -9999 -9999 -9999 -9999 -9999 -9999 -9999 -9999 -9999 -9999 -9999 -9999 -9999 -9999 -9999 -9999 -9999 -9999 -9999 -9999 -9999 -9999 -0.85162228345871 0.175308414335762 13.8025787671407 38.0091883341471 46.2971513536241 59.0762867397732 72.5242063734267 86.9077241685655 98.8243713378906 123.520690070258 144.159615410699 165.36680094401 188.389144897461 210.896065606011 229.31830851237 257.443969726562 277.681474473741 283.078436957465 300.752899169922 329.655571831597 350.5673828125 381.930111355252 431.948649088542 552.154937744141 580.593807644314 584.750630696615 571.078701443142 577.93756781684 637.36809624566 694.827785915799 765.93118625217 760.792371961806 686.397671169705 728.724175347222 811.858981662326 925.105726453993 976.466722276476 998.122470431858 1014.09571668837 1030.24538845486 1034.64889865451 1038.24373372396 1042.20581054688 1037.86526150174 1037.49909125434 1045.63384331597 1051.88420952691 1057.3893093533 1061.24141438802 1062.7959391276 1063.37017144097 1065.40814887153 1069.56187608507 1070.02962239583 1072.04455566406 1066.47016059028 1060.2851155599 1056.79876030816 1050.69160970052 1040.66933865017 848.621826171875 746.357964409722 696.673685709635 632.399536132812 542.083655463325 443.103118896484 374.866726345486 336.794023301866 316.24710422092 292.053907606337 272.187967936198 249.548573811849 231.241248236762 215.909511990017 209.55578274197 202.657835218641 189.513834635417 180.316402859158 169.663477579753 159.262800428602 147.472688462999 139.191134982639 132.913408067491 116.954160902235 106.765143500434 96.2013676961263 87.1494920518663 77.259289211697 72.6853425767687 67.5537240770128 61.9779175652398 55.1635377671983 48.9647331237793 43.7379489474826 38.587272644043 33.2779371473524 28.0838436550564 23.5647648705377 18.9035806655884 14.5388018290202 13.003299607171 14.1791664759318 13.6675319671631 14.9968691931831 17.9810983869765 20.5731661054823 21.3831486172146 20.9391314188639 20.8050994873047 20.6957374148899 19.3549953036838 12.8077969021267 9.83310254414876 10.1717564264933 11.0985842810737 11.6905818515354 12.0953425301446 14.1791626612345 16.9606182310316 18.7923772599962 19.5690350002713 19.2221240997314 18.5241669548882 16.9559506310357 14.9104745652941 11.5537916819255 7.15799744923909 7.67885372373793 11.1282318962945 13.6023090150621 14.5676773919 14.5094060897827 14.2332106696235 14.2034532758925 13.6647352642483 12.1410837173462 11.1244818369548 10.5969292322795 9.98612827724881 9.76103729671902 10.5546432071262 10.7113597657945 11.042677031623 11.5684244367811 11.3172840542263 10.9674868583679
-9999 -9999 -9999 -9999 -9999 -9999 -9999 -9999 -9999 -9999 -9999 -9999 -9999 -9999 -9999 -9999 -9999 -9999 -9999 -9999 -9999 -9999 -9999 -9999 -9999 -9999 -9999 -9999 -9999 -9999 -9999 -9999 -9999 -9999 -9999 -9999 -9999 -9999 -9999 -9999 -9999 -9999 -9999 -9999 -9999 -9999 -9999 -9999 -9999 -9999 -9999 -9999 -9999 -9999 -9999 -9999 -9999 -9999 -9999 -9999 -9999 -9999 -9999 -9999 -9999 -9999 -9999 -9999 -9999 -9999 -9999 -9999 -9999 -9999 -9999 -9999 -9999 -9999 -9999 -9999 2.07672430574894 24.2912179099189 45.9218444824219 58.4934794108073 65.8581280178494 75.0809843275282 89.7997750176324 106.996714274089 132.669557359483 153.994181315104 175.431115044488 198.4968685574 219.639539930556 241.138999091254 266.854063245985 284.800716824002 298.915469699436 314.337595621745 336.531945122613 365.856401231554 405.48393758138 465.256283230252 565.768914116753 642.253160264757 685.209092881944 695.106940375434 686.623331705729 710.321302625868 740.163533528646 814.616753472222 830.237440321181 808.769212510851 789.311109754774 820.897047254774 877.79628499349 912.600124782986 939.356207953559 962.646843804253 984.5029296875 999.721706814236 1006.56016031901 1015.64025200738 1020.43400743273 1022.35138617622 1030.28759765625 1038.93401421441 1045.29093424479 1049.94109429253 1052.0025906033 1055.3173421224 1060.96520996094 1064.02315266927 1067.34343804253 1074.37196180556 1079.12048339844 1071.01542154948 1066.80768500434 1060.81483289931 1044.21270073785 871.801988389757 748.335340711806 696.98329671224 589.424167209201 509.616739908854 447.58448961046 377.346791585286 329.970513237847 296.961581759983 273.570024278429 253.307374742296 232.454415215386 213.122083875868 197.99717203776 195.88542175293 184.227903578016 175.376842922635 166.519990709093 155.593916151259 145.303410847982 139.145858764648 135.251494513618 120.916693793403 110.055677625868 103.064802381727 91.2781533135308 83.24279361301 73.2346954345703 67.0338668823242 59.9093229505751 55.7524630228678 50.552737765842 45.2894410027398 39.7962163289388 35.2303704155816 30.989441341824 26.250470691257 22.1622125837538 17.9531738493178 13.381460931566 14.2367593977186 15.505446434021 15.7159570058187 15.0032000011868 17.5156016879612 19.9512640635173 20.3893725077311 19.8112585279677 18.4965067969428 16.6548159917196 12.2891042497423 10.287495719062 11.1713994344076 12.3129860560099 13.6213692559136 14.7754316329956 15.7494319279989 18.0302403767904 19.4362858666314 20.4767886267768 20.6585678524441 19.7242794036865 18.5273738437229 16.6185473336114 14.6680420769585 10.3291792339749 7.3345627784729 8.75022670957777 12.4065640767415 14.4512069490221 15.1729000939263 14.8377476798164 14.6638375388251 14.6436808904012 13.9078730477227 12.685322019789 12.038951449924 11.2198442882962 10.5757752524482 10.3615525563558 10.591838200887 10.9914278454251 11.1835425694784 11.3047339121501 11.2519801457723 11.2581652005514
-9999 -9999 -9999 -9999 -9999 -9999 -9999 -9999 -9999 -9999 -9999 -9999 -9999 -9999 -9999 -9999 -9999 -9999 -9999 -9999 -9999 -9999 -9999 -9999 -9999 -9999 -9999 -9999 -9999 -9999 -9999 -9999 -9999 -9999 -9999 -9999 -9999 -9999 -9999 -9999 -9999 -9999 -9999 -9999 -9999 -9999 -9999 -9999 -9999 -9999 -9999 -9999 -9999 -9999 -9999 -9999 -9999 -9999 -9999 -9999 -9999 -9999 -9999 -9999 -9999 -9999 -9999 -9999 -9999 -9999 -9999 -9999 -9999 -9999 -9999 -9999 -9999 -9999 -9999 -9999 0.647947291533152 16.1940006679959 42.0835986667209 58.9753629896376 76.9536421034071 86.2048297458225 94.3246146308051 106.514516194661 127.084242926704 146.968865288628 177.085571289062 203.32932027181 223.033864339193 242.452090793186 270.175418429904 291.518473307292 308.301500108507 332.957770453559 352.111555311415 378.587053087023 458.785932752821 518.888326009115 621.768079969618 671.265197753906 710.688069661458 756.795993381076 789.320231119792 867.246690538194 895.823682996962 935.683797200521 963.838751898871 960.879170735677 940.06595187717 947.599039713542 926.930494520399 903.909444173177 892.068155924479 906.967393663194 925.705288357205 943.224941677517 962.67916531033 977.791090223524 987.954806857639 1000.09470621745 1016.11823187934 1027.59270562066 1028.89065212674 1033.85606553819 1041.67656792535 1046.77193196615 1051.22146267361 1057.73788791233 1060.51729329427 1062.80177137587 1071.99601236979 1074.1012641059 1064.25218370226 995.375610351562 900.987657335069 780.854051378038 708.007629394531 646.110744900174 533.12457953559 487.358194986979 433.975345187717 390.204199896918 344.293202718099 308.568003336589 280.979014078776 265.375259399414 240.679933336046 224.066733466254 208.93122016059 179.081276787652 170.304843478733 161.818542480469 154.025549994575 144.448226928711 134.7804751926 129.129352993435 119.801414489746 110.877698262533 102.935070461697 94.5308634440104 86.9633814493815 77.7780973646376 68.0895165337457 63.3985468546549 56.7432725694444 50.5217467414008 46.2121179368761 41.985597398546 37.3267317877875 33.8500705295139 29.1157105763753 25.0986966027154 21.0196675194634 16.839160601298 13.960906346639 16.0691853629218 16.7415504455566 16.9323895772298 16.0727942784627 17.4670834011502 19.380819744534 19.0810792711046 17.3167397181193 14.9756512112088 12.174632496304 10.7517050637139 11.1654776467217 13.0159366395738 14.6597266727024 15.9274780485365 17.3043053944906 18.326299879286 20.1779465145535 21.4528492821587 21.6783050960965 21.1532955169678 19.8499376508925 18.3027801513672 16.2442389594184 13.2688845528497 8.65965292188856 7.92209890153673 9.49002308315701 13.5679461161296 14.9328407711453 15.674144744873 16.0485861036513 15.467090288798 15.2674605051676 14.5085702472263 13.4578109317356 12.7650824652778 11.6295058992174 10.8004724714491 10.5712869432237 10.909944958157 11.3243250317044 11.4284477233887 11.381398095025 11.5724871953328 11.239292939504
-9999 -9999 -9999 -9999 -9999 -9999 -9999 -9999 -9999 -9999 -9999 -9999 -9999 -9999 -9999 -9999 -9999 -9999 -9999 -9999 -9999 -9999 -9999 -9999 -9999 -9999 -9999 -9999 -9999 -9999 -9999 -9999 -9999 -9999 -9999 -9999 -9999 -9999 -9999 -9999 -9999 -9999 -9999 -9999 -9999 -9999 -9999 -9999 -9999 -9999 -9999 -9999 -9999 -9999 -9999 -9999 -9999 -9999 -9999 -9999 -9999 -9999 -9999 -9999 -9999 -9999 -9999 -9999 -9999 -9999 -9999 -9999 -9999 -9999 -9999 -9999 -9999 -9999 -9999 -0.306551903486252 1.82393008718888 21.6428198814392 56.6190376281738 64.8566207885742 79.7683012220595 95.396977742513 106.439308166504 116.301705254449 125.085249159071 146.254442003038 171.379052056207 198.055597941081 225.715801662869 246.996495564779 270.741300794813 303.065226236979 319.420827229818 344.573194715712 371.480801052517 412.181840684679 510.290252685547 629.957438151042 660.687106662326 719.210598415799 834.416388617621 851.182142469618 880.897189670139 915.50937906901 928.931125217014 938.383388943142 957.831203884549 973.070407443576 974.613939073351 965.407735188802 946.43551296658 924.514960394965 904.927090115017 879.563015407986 879.922485351562 898.053636338976 915.384718153212 935.646111382378 964.576348198785 977.165086534288 979.102457682292 978.126736111111 973.310234917535 986.90667046441 1012.0131632487 1027.79849582248 1040.1796468099 1048.14135742188 1045.33581542969 1049.36504448785 1049.10552300347 1045.69708930122 988.643222384983 889.831142849392 846.205756293403 786.749769422743 724.874003092448 628.703993055556 515.252800835503 455.467196994358 411.137088351779 382.65037367079 354.89653523763 327.531049940321 300.409294976128 273.603607177734 253.656017727322 236.610287136502 211.579840766059 180.749042087131 158.073632134332 148.154891967773 139.396918402778 134.187845865885 124.927121480306 116.238594902886 108.701928032769 101.893859863281 94.7247509426541 87.498285929362 80.528450012207 71.8224199083116 66.9884885152181 59.2879130045573 54.1390584309896 48.5362697177463 43.7216339111328 38.8123957316081 35.334969414605 32.4423938327365 28.1074803670247 24.4562445746528 19.4465279049344 15.9095422956679 16.0685210757785 17.7889298333062 18.0741418202718 17.8666271633572 17.3243993123372 17.9408592647976 19.6342076195611 18.8201291826036 16.110656314426 13.2080747816298 11.671620686849 11.4484415054321 13.5839310752021 15.1589074664646 16.645044432746 18.2578896416558 19.5063296424018 21.1100480821398 22.1374073028564 22.5036890241835 22.1476508246528 21.2505777147081 19.7410288916694 17.906381395128 16.1493088404338 12.7648125754462 8.65969954596625 8.22293302747938 10.6371755599976 14.1751560635037 15.5505911509196 16.4218422571818 16.5537285274929 16.0552816390991 15.5487461090088 14.9224358664619 13.9977589713203 13.4820492002699 12.6148580975003 11.5396534601847 11.0583799150255 11.3659182654487 11.320348209805 11.4904934565226 11.5599040985107 11.485729959276 11.4990166028341
-9999 -9999 -9999 -9999 -9999 -9999 -9999 -9999 -9999 -9999 -9999 -9999 -9999 -9999 -9999 -9999 -9999 -9999 -9999 -9999 -9999 -9999 -9999 -9999 -9999 -9999 -9999 -9999 -9999 -9999 -9999 -9999 -9999 -9999 -9999 -9999 -9999 -9999 -9999 -9999 -9999 -9999 -9999 -9999 -9999 -9999 -9999 -9999 -9999 -9999 -9999 -9999 -9999 -9999 -9999 -9999 -9999 -9999 -9999 -9999 -9999 -9999 -9999 -9999 -9999 -9999 -9999 -9999 -9999 -9999 -9999 -9999 -9999 -9999 -9999 -9999 -9999 -9999 -9999 3.76270812962736 12.6972414917416 36.6399127112495 65.7406272888184 77.1814685397678 86.3418960571289 97.4988191392687 116.961850484212 132.052082485623 144.072882758247 155.338931613498 166.867548624674 191.94383070204 230.525502522786 263.723736233181 289.444057888455 319.764617919922 342.276438395182 372.707777235243 404.109452989366 454.300136990017 536.215810139974 617.450283474392 686.484524197049 752.202907986111 829.187805175781 858.75791422526 864.738050672743 894.835964626736 932.833902994792 934.351637098524 933.640774197049 939.135206434462 951.503892686632 962.503770616319 960.134467230903 942.55423312717 912.42958577474 889.157504611545 873.398722330729 870.821329752604 879.169731987847 898.888264973958 930.142001681858 948.67295328776 955.553717719184 936.105285644531 932.615898980035 941.017327202691 967.869066026476 990.480902777778 1019.8439602322 1026.60346137153 1022.71299235026 1019.23946126302 1016.72877332899 1016.03597005208 998.910346137153 882.080891927083 800.800143771701 769.417392306858 725.076354980469 662.19733344184 554.225863986545 436.801137288411 371.225155300564 357.654944525825 337.575856526693 314.228037516276 292.306793212891 272.723697238498 246.380428738064 222.601967705621 204.204632229275 181.165227254232 154.845175849067 138.421408759223 127.52488623725 118.223158942329 113.251593695747 105.347293429905 98.8021172417535 93.7895914713542 86.6488893296983 80.2216627332899 73.4322043524848 68.1278669569227 61.66632715861 56.4672016567654 50.5588531494141 45.9067713419596 41.9796596103244 37.8009185791016 34.0457702212863 30.0506365034315 25.6583222283257 21.6215351952447 18.3352752261692 15.5639513863458 17.8648375405206 19.401457256741 19.3472836812337 18.9809489780002 18.6397688123915 19.2980567084418 20.6804557376438 19.5596230824788 16.6104634602865 12.8061205546061 11.5722010930379 12.4817497465346 14.8927128050062 17.1750695970323 18.0979599422879 20.0454860263401 21.5603171454536 22.9180005391439 23.2292931874593 23.1593407524957 22.5960907406277 21.2141944037543 19.4083419375949 17.516416337755 16.0220239427355 13.618331167433 10.426579369439 8.71506049897936 11.6725875006782 14.8713597191705 16.1204535166423 16.6462993621826 16.4619060092502 16.036123169793 15.6668671502007 14.8683785332574 14.5315068562826 13.7418798870511 12.9537675645616 12.0102403428819 11.4759292602539 11.5168976253933 11.3815894656711 11.7847604751587 11.68184683058 11.7072949939304 11.6412024497986
-9999 -9999 -9999 -9999 -9999 -9999 -9999 -9999 -9999 -9999 -9999 -9999 -9999 -9999 -9999 -9999 -9999 -9999 -9999 -9999 -9999 -9999 -9999 -9999 -9999 -9999 -9999 -9999 -9999 -9999 -9999 -9999 -9999 -9999 -9999 -9999 -9999 -9999 -9999 -9999 -9999 -9999 -9999 -9999 -9999 -9999 -9999 -9999 -9999 -9999 -9999 -9999 -9999 -9999 -9999 -9999 -9999 -9999 -9999 -9999 -9999 -9999 -9999 -9999 -9999 -9999 -9999 -9999 -9999 -9999 -9999 -9999 -9999 -9999 -9999 -9999 -9999 -9999 5.14884086847305 18.8297094768948 31.1076967451307 52.7507332695855 72.4579900105794 87.7814517550998 100.638884650336 112.546954684787 120.420749240451 137.424822489421 162.973814222548 183.526178995768 198.361911349826 201.524571736654 233.844514634874 268.981711493598 296.313571506076 324.338375515408 356.616288926866 406.242977566189 451.086808946398 497.181108262804 611.97666422526 688.420484754774 744.372599283854 811.559285481771 815.292772081163 808.763434516059 820.058993869358 854.404758029514 900.612677680121 914.837137858073 915.973795572917 916.987569173177 926.303527832031 927.084872775608 934.506259494358 951.290167914496 930.387790256076 901.72659640842 887.14596218533 879.611592610677 868.273118760851 871.507385253906 889.566555447049 908.680541992188 925.763163248698 920.668172200521 917.514295789931 919.728861490885 938.859422471788 959.25237358941 980.223476833767 995.00491672092 1000.66655137804 1002.62575276693 1004.95965576172 989.522555881076 932.302530924479 827.877970377604 713.951063368056 622.352945963542 566.793084038628 518.266764322917 499.897572835286 399.401777479384 345.089443630642 323.67232937283 309.36722140842 294.135311550564 279.381462944878 261.727105034722 241.102439032661 223.683180067274 208.89471605089 186.485777113173 152.29155476888 132.999517652724 120.258566114638 111.48008219401 101.784562004937 94.6779547797309 87.489013671875 83.856568230523 78.4717398749457 70.7543063693576 64.6536860995822 60.3884590996636 56.2349073621962 51.2546314663357 47.093324025472 44.6210581461589 39.5308176676432 35.3314030965169 30.7059290144179 27.4206538730197 23.2736941443549 20.6968527899848 18.6701933542887 16.0765471988254 19.8045395745171 20.4710388183594 20.4292596181234 19.9306632147895 19.9796977572971 21.3818035125732 22.1326724158393 21.5580107371012 18.885920630561 13.0616648991903 11.9645734363132 13.2994112438626 16.1703917185465 18.7710319095188 19.532896677653 21.1604781680637 22.5352889166938 23.832609600491 24.4595241546631 23.7839075724284 22.8328611585829 21.7914543151855 19.5187430911594 17.4669070773655 16.1472330093384 14.32040087382 11.1364977094862 9.79779031541612 13.0624912050035 15.2828931808472 16.7126842074924 16.9080814785428 16.5467703077528 16.4670588175456 15.5987796783447 15.0503438313802 14.4541384379069 13.3760900497437 12.6934139463637 12.2550033993191 11.5946875678168 11.7523337470161 11.8388712141249 12.1696878009372 12.3647554185655 12.2505035400391 12.2764423688253
-9999 -9999 -9999 -9999 -9999 -9999 -9999 -9999 -9999 -9999 -9999 -9999 -9999 -9999 -9999 -9999 -9999 -9999 -9999 -9999 -9999 -9999 -9999 -9999 -9999 -9999 -9999 -9999 -9999 -9999 -9999 -9999 -9999 -9999 -9999 -9999 -9999 -9999 -9999 -9999 -9999 -9999 -9999 -9999 -9999 -9999 -9999 -9999 -9999 -9999 -9999 -9999 -9999 -9999 -9999 -9999 -9999 -9999 -9999 -9999 -9999 -9999 -9999 -9999 -9999 -9999 -9999 -9999 -9999 -9999 -9999 -9999 -9999 -9999 -9999 -9999 -9999 -9999 6.0972669839859 23.9228693644206 40.6143256293403 54.150522020128 72.5302331712511 91.7161916097005 109.544698079427 122.779494391547 139.106421576606 147.513147989909 164.50688680013 197.660607231988 225.782341851128 238.459299723307 251.772615220812 270.825241088867 304.486606174045 336.892127143012 375.560333251953 440.671122233073 523.205213758681 575.803229437934 629.615227593316 724.491488986545 800.921712239583 827.44088406033 815.151977539062 794.590277777778 809.84169514974 836.036709255642 864.635667588976 873.743082682292 870.901150173611 891.115085177951 924.970784505208 937.760125054253 924.445373535156 909.728691948785 911.911241319444 900.140882703993 902.681823730469 898.956604003906 889.550204806858 866.428297254774 868.469211154514 893.008951822917 911.771396213108 921.545125325521 901.264078776042 899.120585123698 910.963087293837 933.394660101996 958.294569227431 975.686706542969 990.674648708767 991.173143174913 995.17965359158 997.118123372396 989.050869411892 930.333089192708 791.80329047309 672.236348470052 571.074327256944 491.087707519531 433.624518500434 373.654090033637 340.028289794922 315.549167209201 291.016472710503 274.27340359158 257.032179090712 247.501051161024 230.193116929796 217.597769843207 210.308376736111 177.573374430339 150.208947075738 132.233397589789 116.920202467177 105.949414571126 97.4027896457248 89.8898145887587 82.9565590752496 77.0801205105252 71.1181038750542 65.2993659973145 60.1007266574436 56.3196241590712 51.1625183953179 47.4222636752658 43.4943457709418 41.1034884982639 35.7667198181152 34.0872467888726 26.6074464586046 24.0996748606364 21.6461069318983 19.7646738688151 18.1663818359375 20.9785007900662 21.2457690768772 22.1026613447401 20.7776389651828 20.8666729397244 21.68723487854 22.7960628933377 23.1508886549208 22.7572521633572 19.3910756640964 12.9882659912109 12.3599032296075 15.1626239352756 17.8140682644314 19.3788693745931 21.2387756771511 22.5494526757134 23.4417027367486 24.5584097968207 24.677635828654 24.28799756368 23.314153459337 21.9872033860948 19.557897567749 17.6396895514594 16.021577835083 14.5348539352417 11.9136379559835 11.1798018349542 14.258797539605 15.5441961288452 16.6682446797689 17.311256620619 17.3166932000054 17.0731836954753 16.1988583670722 15.6141535441081 14.4218464957343 13.1943408118354 12.5739586088392 12.5401032765706 12.1173031065199 12.2507738537259 12.4417391883002 12.887973467509 13.2878585391574 13.0403597089979 12.9667733510335
-9999 -9999 -9999 -9999 -9999 -9999 -9999 -9999 -9999 -9999 -9999 -9999 -9999 -9999 -9999 -9999 -9999 -9999 -9999 -9999 -9999 -9999 -9999 -9999 -9999 -9999 -9999 -9999 -9999 -9999 -9999 -9999 -9999 -9999 -9999 -9999 -9999 -9999 -9999 -9999 -9999 -9999 -9999 -9999 -9999 -9999 -9999 -9999 -9999 -9999 -9999 -9999 -9999 -9999 -9999 -9999 -9999 -9999 -9999 -9999 -9999 -9999 -9999 -9999 -9999 -9999 -9999 -9999 -9999 -9999 -9999 -9999 -9999 -9999 -9999 -9999 -9999 -9999 0.43170972665151 17.0301761097378 37.450749291314 55.7805319892036 68.6467412312825 83.3960528903537 113.376545376248 134.607608371311 152.42360941569 166.451902601454 176.550706651476 202.060940212674 234.242290920681 268.300150553385 299.629248725043 305.808963351779 318.741149902344 356.020667182075 412.392571343316 491.660831027561 607.573398166233 689.462422688802 733.829698350694 728.413791232639 753.294677734375 770.723219129774 773.983100043403 792.020412868924 821.316067165799 833.371466742621 847.43056233724 857.883456759983 864.645358615451 887.232937282986 906.270161946615 920.895026312934 926.273349338108 905.778856065538 880.917053222656 867.398084852431 869.038099500868 885.779106987847 910.961676703559 888.468587239583 857.40774875217 857.273383246528 885.281141493056 891.797288682726 888.648695203993 896.045701768663 894.765469021267 903.723917643229 933.66608344184 952.711208767361 964.156745062934 973.76419406467 983.333211263021 990.963195800781 963.012973361545 901.35194905599 783.707309299045 678.688551161024 548.183949788411 473.193081325955 412.299228244358 375.677395290799 349.986528184679 323.926578097873 303.822903103299 278.889234754774 256.085888332791 229.385932074653 209.489705403646 202.599616156684 191.18837483724 170.896659003364 147.351369222005 128.005881415473 111.644014994303 99.8315717909071 91.6144553290473 86.4817827012804 79.0506422254774 73.5496715969509 68.2498940361871 63.5837508307563 58.4753918117947 53.6113425360786 48.1925044589572 44.4944996303982 40.9746534559462 39.423531850179 35.3979687160916 30.9030168321398 23.7560708787706 21.2464097340902 19.6543593936496 20.838905122545 21.5524306827121 23.3278191884359 22.4578181372748 22.0036044650608 21.924676683214 22.4936684502496 23.8336537679036 24.1180928548177 23.7645414140489 22.1745821634928 17.0237192577786 12.3699992497762 13.1448016696506 15.4809697469076 18.3465510474311 20.439761267768 22.3890923394097 23.5500935448541 24.3370427025689 25.0525050693088 25.1370697021484 24.3718013763428 23.3751409318712 21.8525329165989 19.7619643741184 17.8293323516846 15.7061528099908 13.371200243632 12.5167006386651 12.3792710834079 15.7891123029921 16.365370326572 16.6834958394368 17.2807581159804 17.4882100423177 17.6254971822103 16.6762504577637 16.0830937491523 14.9129756291707 13.4933035108778 12.7161615159776 13.3025014665392 13.3495926327176 13.270763291253 13.4818912082248 13.5748127831353 13.74581167433 13.6432592603895 13.5761629740397
-9999 -9999 -9999 -9999 -9999 -9999 -9999 -9999 -9999 -9999 -9999 -9999 -9999 -9999 -9999 -9999 -9999 -9999 -9999 -9999 -9999 -9999 -9999 -9999 -9999 -9999 -9999 -9999 -9999 -9999 -9999 -9999 -9999 -9999 -9999 -9999 -9999 -9999 -9999 -9999 -9999 -9999 -9999 -9999 -9999 -9999 -9999 -9999 -9999 -9999 -9999 -9999 -9999 -9999 -9999 -9999 -9999 -9999 -9999 -9999 -9999 -9999 -9999 -9999 -9999 -9999 -9999 -9999 -9999 -9999 -9999 -9999 -9999 -9999 -9999 -9999 -9999 -9999 0.15237408131361 11.077034579383 31.9595733218723 48.2874887254503 62.918393029107 79.6456019083659 100.936906602648 134.28938208686 162.071562025282 178.789596557617 191.202979193793 212.236228095161 249.134648640951 292.100992838542 342.357130262587 360.912692599826 360.425330268012 380.037689208984 423.155853271484 478.171142578125 567.090142144097 643.272637261285 694.941745334201 717.14980061849 731.587734646267 750.322455512153 756.768853081597 765.411220974392 779.507595486111 808.416205512153 829.28121609158 812.355231391059 818.64400906033 874.407443576389 911.54345703125 918.138108995226 920.771131727431 904.804924858941 871.798692491319 838.883714463976 825.383809407552 833.207438151042 857.329664442274 884.55556233724 869.925760904948 828.700622558594 845.729885525174 863.025533040365 880.142062717014 893.380655924479 889.516201443142 884.621344672309 898.89589436849 936.967210557726 958.780666775174 972.369154188368 984.977817111545 992.609530978733 993.959459092882 742.441236707899 708.23088921441 680.704230414496 550.252448187934 443.971299913194 400.882269965278 361.585940890842 338.808488633898 321.445281982422 295.239027235243 271.50537109375 249.168021308051 223.487887912326 200.676140679253 185.708763970269 176.741494072808 163.590750800239 144.903542412652 124.554154290093 109.158786349826 97.5229797363281 88.6594297620985 81.5718926323785 75.1667895846897 69.957642449273 64.8204561869303 59.9409688313802 55.3736551072862 50.0673789978027 44.775217268202 41.1929244995117 39.1105791727702 36.2396320766873 33.2405776977539 27.8195692698161 22.6469446818034 20.1196556091309 20.0276084476047 23.1484285990397 24.4855762057834 24.6350572374132 23.8156227535672 22.7761285569933 23.0661869049072 23.6793507470025 24.8778298695882 24.6182948218452 23.2307116190592 19.095192167494 15.1162457995945 14.0170868767632 15.2215443717109 16.4067788653904 18.3674212561713 21.694935268826 23.1677816179064 24.4270034366184 25.0232024722629 25.6424708896213 25.6040865580241 24.893284479777 23.4809002346463 22.0414475335015 19.7966507805718 17.7477669186062 15.3323106765747 12.525226910909 10.4822385576036 12.9120461146037 15.9313179651896 16.6568658616808 17.019159105089 17.4613297780355 17.576762093438 17.7038275400798 17.4206239912245 16.4362086190118 15.3981072107951 14.1703787909614 13.4567171732585 13.6398350397746 13.7799888186985 14.3777785831028 14.4775355656942 14.1120978461372 14.2783475451999 14.211009979248 14.1066861152649
-9999 -9999 -9999 -9999 -9999 -9999 -9999 -9999 -9999 -9999 -9999 -9999 -9999 -9999 -9999 -9999 -9999 -9999 -9999 -9999 -9999 -9999 -9999 -9999 -9999 -9999 -9999 -9999 -9999 -9999 -9999 -9999 -9999 -9999 -9999 -9999 -9999 -9999 -9999 -9999 -9999 -9999 -9999 -9999 -9999 -9999 -9999 -9999 -9999 -9999 -9999 -9999 -9999 -9999 -9999 -9999 -9999 -9999 -9999 -9999 -9999 -9999 -9999 -9999 -9999 -9999 -9999 -9999 -9999 -9999 -9999 -9999 -9999 -9999 -9999 -9999 -9999 -9999 -9999 5.72277926281095 28.1813042958577 54.7076026068793 77.9212256537543 85.7779914008246 95.2849638197157 116.542199028863 143.976568433974 167.927610609266 200.185704549154 224.005888197157 257.042990790473 298.415520562066 352.555331759983 422.277479383681 436.335723876953 435.780415852865 472.998209635417 514.828026665582 563.124342176649 619.607089572483 658.267001681858 705.469509548611 726.989793565538 737.141716851128 748.29495578342 755.249037000868 759.498399522569 772.903164333767 802.507500542535 808.605414496528 795.51555718316 818.888054741753 875.496880425347 895.805365668403 894.494988335503 871.906500922309 841.724338107639 805.601677788628 782.951551649306 783.20204671224 792.055996365017 798.276597764757 814.07760281033 834.718092176649 840.257927788628 850.666978624132 855.211791992188 866.646545410156 880.14540608724 875.844441731771 884.322326660156 920.527506510417 952.097886827257 966.722262912326 975.890441894531 991.023254394531 993.451192220052 814.413825141059 624.951076931424 586.289774576823 509.28273179796 395.70218234592 367.573035346137 342.28561062283 319.056159125434 308.237830268012 291.081030951606 275.619150797526 250.317947387695 228.96043226454 203.246804131402 177.150037977431 164.807139078776 154.621882120768 136.554818047418 121.101097106934 107.028063456217 95.3391350640191 86.4670130411784 78.44714779324 72.3175277709961 66.7642584906684 61.7564955817328 57.6458231608073 54.0307795206706 49.513858795166 42.6408059861925 38.5665732489692 35.6957168579102 31.7757078806559 29.5452126397027 24.4827664693197 21.173367606269 20.6296905941433 22.4871217939589 24.1583959791395 24.8807144165039 24.9482423994276 24.1709300147163 22.7786875830756 24.0270178053114 25.284049987793 25.3191248575846 24.0992393493652 19.6374335818821 16.038285891215 14.539637459649 15.9565246370104 17.6403537326389 18.7010453542074 19.6380805969238 20.9101015726725 23.6165875328912 24.6292213863797 25.22409163581 25.5088500976562 25.4841323428684 24.8272484673394 23.4970041910807 22.104795244005 20.0777899424235 18.0202929178874 15.7270176145766 12.3435629738702 10.7310870488485 13.984514342414 16.5036350886027 16.8355562422011 17.4761763678657 17.4783857133653 17.563739988539 18.2498647901747 17.6098149617513 16.6364364624023 15.4442830615573 14.3656585481432 13.5570789972941 14.2376427120633 14.6239195929633 15.2909150653415 15.3302586873372 14.9276217354669 14.7803529103597 14.7755421532525 14.5016865730286
-9999 -9999 -9999 -9999 -9999 -9999 -9999 -9999 -9999 -9999 -9999 -9999 -9999 -9999 -9999 -9999 -9999 -9999 -9999 -9999 -9999 -9999 -9999 -9999 -9999 -9999 -9999 -9999 -9999 -9999 -9999 -9999 -9999 -9999 -9999 -9999 -9999 -9999 -9999 -9999 -9999 -9999 -9999 -9999 -9999 -9999 -9999 -9999 -9999 -9999 -9999 -9999 -9999 -9999 -9999 -9999 -9999 -9999 -9999 -9999 -9999 -9999 -9999 -9999 -9999 -9999 -9999 -9999 -9999 -9999 -9999 -9999 -9999 -9999 -9999 -9999 -9999 -9999 -9999 7.45158763726552 29.0832528008355 51.0878482394748 91.88392384847 124.088456895616 135.308378431532 130.534662034776 133.381447686089 145.163016425239 182.933534410265 222.666737874349 256.403245713976 294.640224880642 354.031043158637 435.369401719835 519.971479627821 535.186614990234 546.317742241753 600.325975206163 681.631612141927 767.840881347656 749.988444010417 738.483249240451 743.234069824219 750.774617513021 749.778720431858 753.706692165799 757.596530490451 758.885450575087 766.387939453125 778.872972276476 779.427476671007 781.897894965278 812.285990397135 841.129828559028 832.805508083767 818.270094129774 804.769965277778 772.83551703559 757.964626736111 757.969000922309 760.33984375 793.753261990017 829.728651258681 855.209906684028 886.56396484375 882.283481174045 845.901936848958 840.427476671007 836.171644422743 844.076063368056 863.257548014323 882.07181125217 921.243035210503 944.80605061849 956.868815104167 973.006978352865 962.913662380642 823.736077202691 683.992858886719 524.817165798611 454.891747368707 391.291944715712 351.107584635417 323.311431884766 301.050428602431 282.326883951823 278.776038275825 267.069166395399 249.028281317817 222.001124064128 190.656412760417 171.014575534397 157.19347805447 143.455323961046 130.930912441678 117.704770406087 104.11685011122 93.6390889485677 84.2036505805121 76.9903140597873 70.5262612236871 64.417835659451 59.1691424051921 55.3606571621365 51.6952128940158 47.5531340705024 42.2378866407606 37.8816854688856 33.4593435923258 29.9572429656982 26.8260667588976 23.8715322282579 21.5470610724555 22.7574759589301 24.4440922207303 25.6344091627333 24.9911526574029 24.9868100484212 24.874265882704 24.6138017442491 25.9600490993924 26.0508047739665 25.4261114332411 22.6362552642822 16.482658068339 15.0717164145576 16.1635528140598 18.0085506439209 19.4551493326823 20.4236439598931 21.1759969923231 21.8685404459635 23.1854983435737 24.4080431196425 25.1395509507921 25.4350732167562 25.5006830427382 24.897028181288 23.5744931962755 22.3049290974935 20.3050293392605 18.3488551245795 16.0940602620443 12.8507714801364 11.1313347286648 14.3790895673964 16.558339436849 17.2734207577176 17.0185894436306 17.3666489919027 17.6412222120497 18.3286486731635 18.4540831247965 17.2133541107178 15.785999721951 14.7706123987834 14.3655920028687 14.6814720365736 15.3731115129259 15.9129254023234 16.0786896811591 15.8512010574341 15.7303562164307 15.3154795964559 14.7351166407267
-9999 -9999 -9999 -9999 -9999 -9999 -9999 -9999 -9999 -9999 -9999 -9999 -9999 -9999 -9999 -9999 -9999 -9999 -9999 -9999 -9999 -9999 -9999 -9999 -9999 -9999 -9999 -9999 -9999 -9999 -9999 -9999 -9999 -9999 -9999 -9999 -9999 -9999 -9999 -9999 -9999 -9999 -9999 -9999 -9999 -9999 -9999 -9999 -9999 -9999 -9999 -9999 -9999 -9999 -9999 -9999 -9999 -9999 -9999 -9999 -9999 -9999 -9999 -9999 -9999 -9999 -9999 -9999 -9999 -9999 -9999 -9999 -9999 -9999 -9999 -9999 -9999 -9999 -9999 7.38174593117502 39.3057452307807 61.9051043192546 97.1682671440972 139.033677842882 168.131188286675 177.212641398112 178.614384969076 170.143788655599 167.752568562826 205.902608235677 241.773379855686 287.206075032552 332.970319959852 417.579043918186 526.247816297743 583.296447753906 611.549126519097 632.324055989583 720.209235297309 754.129557291667 762.212463378906 754.223944769965 749.281277126736 750.046108669705 750.905924479167 752.575276692708 756.365871853299 756.781968858507 758.054768880208 758.891052246094 757.581278483073 758.439737955729 758.792697482639 767.462280273438 775.414944118924 776.962476942274 767.163309733073 753.819023980035 747.46083577474 752.064724392361 764.530571831597 810.824347601996 852.723293728299 868.246215820312 894.80946858724 907.553310818142 866.855455186632 829.763495551215 820.907931857639 823.000929090712 830.946411132812 843.027960883246 859.069179958767 887.763678656684 919.09127468533 906.461615668403 838.77727593316 738.699618869358 604.89023844401 513.540551079644 429.07233344184 386.594729953342 351.204579671224 316.532430013021 292.871595594618 260.369281344944 255.812232123481 250.495608859592 235.829128689236 210.854085286458 183.250495062934 169.792984008789 154.627931382921 139.829447428385 124.152382744683 114.273027208116 103.058343675401 91.1134321424696 82.4121432834201 74.7090131971571 68.0681635538737 62.1114616394043 56.6605474683973 53.2016927931044 49.4434314303928 45.6789279513889 41.0378053453233 37.5412284003364 34.1961470709907 30.5716374715169 27.5487079620361 25.2444479200575 23.7176494598389 26.285270690918 26.7328612009684 26.8017506069607 26.1973453097873 25.5574559105767 25.7861052619086 26.8892271253798 27.6538995107015 27.2554759979248 24.8583575354682 19.4291017320421 15.7628030776978 15.4670751359728 17.5784286922879 19.3180480533176 20.3609553443061 21.386626985338 22.3008422851562 22.5702870686849 22.9604261186388 24.1365356445312 24.8888575236003 25.4339165157742 25.4710964626736 24.8155318366157 23.6304115719265 22.3728199005127 20.3653026156955 18.4935046301948 16.259968969557 13.6198275883993 12.2612024943034 14.2787879308065 16.5882102118598 17.2557184431288 16.7066101498074 17.2024788326687 17.6305883195665 18.2811283535428 18.4330607520209 17.3960770501031 15.8912857903375 14.9027155770196 14.6396965450711 14.8589785893758 15.6783258650038 16.1669911278619 16.5235489739312 16.3529198964437 16.2456783718533 15.6781920327081 15.3218366305033
-9999 -9999 -9999 -9999 -9999 -9999 -9999 -9999 -9999 -9999 -9999 -9999 -9999 -9999 -9999 -9999 -9999 -9999 -9999 -9999 -9999 -9999 -9999 -9999 -9999 -9999 -9999 -9999 -9999 -9999 -9999 -9999 -9999 -9999 -9999 -9999 -9999 -9999 -9999 -9999 -9999 -9999 -9999 -9999 -9999 -9999 -9999 -9999 -9999 -9999 -9999 -9999 -9999 -9999 -9999 -9999 -9999 -9999 -9999 -9999 -9999 -9999 -9999 -9999 -9999 -9999 -9999 -9999 -9999 -9999 -9999 -9999 -9999 -9999 -9999 -9999 -9999 -0.892738997936249 4.09048366732895 24.4218489858839 57.6563487582737 71.9346622890896 105.532083299425 148.583429972331 175.813956366645 198.172619289822 211.793353610569 214.239607069227 195.164896647135 229.013656616211 296.023142496745 355.918785942925 390.530680338542 413.405598958333 462.884857177734 535.526204427083 626.374131944444 691.224080403646 711.672125922309 730.842095269097 739.291144476996 748.27594672309 756.912278917101 753.797119140625 749.257337782118 746.963921440972 748.262010362413 751.04300265842 752.475375705295 755.196533203125 753.224046495226 744.185350206163 740.77675374349 742.381890190972 743.321431477865 742.902615017361 744.662685818142 744.80820719401 743.428934733073 748.736504448785 761.96188015408 811.636657714844 863.574483235677 890.842956542969 896.855523003472 906.103705512153 891.017184787326 857.372463650174 834.092949761285 818.161885579427 809.560384114583 814.465691460503 821.170620388455 826.636101616753 791.725111219618 734.767557779948 667.994547526042 542.331600613064 494.35100640191 447.246487087674 392.015428331163 364.438893636068 335.071116129557 308.896335177951 293.013861762153 272.45600382487 238.156411064996 218.092258029514 207.193976508247 199.357679578993 179.121924506293 179.222447713216 167.900438096788 146.203423394097 122.252395629883 106.991718716092 96.394655863444 87.8245544433594 79.3984705607096 72.2240626017253 65.6081983778212 59.9187524583605 54.8018870883518 50.3542132907444 46.7017347547743 43.0291675991482 39.2795503404405 36.1519588894314 32.1952669355604 29.8370592329237 27.7582927280002 24.640862358941 27.9076353708903 28.4096037546794 27.9318055046929 28.1161573198107 27.5032501220703 26.8708996242947 27.5395480261909 28.0118302239312 27.7610217200385 27.0369601779514 23.333902782864 18.1281613243951 16.1158537334866 17.3300906287299 18.2835161421034 19.8703638712565 21.2215955522325 21.9060615963406 22.8920680152045 23.379674911499 23.8996526930067 24.3433589935303 24.6436078813341 25.6449760860867 25.7052875094944 24.8354776170519 23.7303271823459 22.4103412628174 20.7129768795437 18.3750303056505 16.0780749850803 14.1579438315497 12.4940141042074 14.3266087638007 16.5689392089844 17.3940698835585 16.7637640635173 17.0544323391385 17.7404056125217 17.9244632720947 18.1830577850342 17.4772044287788 15.942800839742 15.4225698047214 15.0753309461806 15.5898082521227 16.0201324886746 16.5376593271891 16.6273466746012 16.582422680325 16.3855105506049 15.8954425387912 15.4629421234131
-9999 -9999 -9999 -9999 -9999 -9999 -9999 -9999 -9999 -9999 -9999 -9999 -9999 -9999 -9999 -9999 -9999 -9999 -9999 -9999 -9999 -9999 -9999 -9999 -9999 -9999 -9999 -9999 -9999 -9999 -9999 -9999 -9999 -9999 -9999 -9999 -9999 -9999 -9999 -9999 -9999 -9999 -9999 -9999 -9999 -9999 -9999 -9999 -9999 -9999 -9999 -9999 -9999 -9999 -9999 -9999 -9999 -9999 -9999 -9999 -9999 -9999 -9999 -9999 -9999 -9999 -9999 -9999 -9999 -9999 -9999 -9999 -9999 -9999 -9999 -9999 0.595928609371185 7.85266857594252 28.4859892527262 44.8768764071994 77.953059302436 100.334430270725 124.117112053765 158.300554063585 187.132878621419 212.084855821398 230.867179022895 241.907304551866 224.766799926758 233.578035142687 303.379806518555 410.794511583116 501.603674994575 531.783854166667 565.177663167318 636.06061469184 667.696885850694 687.548061794705 711.570665147569 730.5322265625 728.283393012153 730.913743760851 743.331217447917 755.080627441406 754.773111979167 744.672926161024 740.108581542969 744.610148111979 747.584621853299 746.712551540799 749.435546875 749.931057400174 736.761081271701 733.727071126302 736.659240722656 737.350599500868 738.836093478733 742.093126085069 742.309488932292 743.091091579861 751.410556369358 786.807922363281 839.003377278646 875.04258219401 878.337239583333 877.508219401042 876.106987847222 862.660942925347 844.958170572917 825.023844401042 812.259039984809 780.874708387587 725.506964789496 703.527038574219 658.370863172743 610.988376193576 512.048051622179 470.524556477865 443.161190456814 404.178439670139 374.671719021267 343.936570909288 311.784216986762 292.186391194661 279.521606445312 265.637386745877 246.802647908529 221.341868082682 197.987479315864 191.338438245985 171.646111382378 179.679775661892 174.408089531793 149.533989800347 125.106881035699 101.893166436089 90.1481721666124 82.4576780531142 75.6071328057183 68.6484536064996 62.0638101365831 56.6091541714138 51.8653166029188 47.7793316311306 43.8615981207954 40.631905025906 37.4214931064182 33.0773239135742 30.5916283925374 29.0372140672472 27.598688337538 28.7422580718994 29.3982075585259 29.4372111426459 29.6927922566732 29.3963330586751 28.6956397162543 27.8270647260878 28.4655592176649 28.2453937530518 27.132197909885 25.6794590420193 21.7830376095242 17.7074981265598 17.3221679263645 19.3696022033691 19.6167136298286 20.1650676727295 21.6004475487603 22.5864533318414 23.4526822831896 23.8860975901286 24.4296194712321 24.4472624460856 25.1113662719727 26.3148655361599 25.8520469665527 25.0280390845405 23.5312402513292 22.3425146738688 20.8645256890191 18.9409855736627 16.2852991951836 14.4272828631931 12.7176058027479 14.6403928332859 16.6819284227159 17.6320078108046 17.6073341369629 17.7334961361355 17.6657481723362 17.5385814242893 17.5329352484809 17.07500161065 16.078588379754 15.4281038708157 15.5598368114895 15.8771739535862 16.5285674201118 17.1689033508301 16.7972049713135 16.7715757158067 16.4500899844699 16.111339463128 15.7743755976359
-9999 -9999 -9999 -9999 -9999 -9999 -9999 -9999 -9999 -9999 -9999 -9999 -9999 -9999 -9999 -9999 -9999 -9999 -9999 -9999 -9999 -9999 -9999 -9999 -9999 -9999 -9999 -9999 -9999 -9999 -9999 -9999 -9999 -9999 -9999 -9999 -9999 -9999 -9999 -9999 -9999 -9999 -9999 -9999 -9999 -9999 -9999 -9999 -9999 -9999 -9999 -9999 -9999 -9999 -9999 -9999 -9999 -9999 -9999 -9999 -9999 -9999 -9999 -9999 -9999 -9999 -9999 -9999 -9999 -9999 -9999 -9999 -9999 -9999 -9999 -9999 10.1619714839118 30.8695727454291 59.8771180046929 71.5759989420573 84.0578977796767 116.947993808322 146.433561537001 177.93817308214 204.742429945204 226.922202216254 249.277626885308 268.086568196615 265.233849419488 284.129286024306 296.946631537543 382.95706515842 484.618150499132 577.024315728082 652.409362792969 725.45598687066 742.669691297743 742.171142578125 738.643473307292 733.046278211806 728.766933865017 724.360860188802 726.559400770399 731.668111165365 742.264343261719 745.090827094184 736.533216688368 731.762383355035 732.758911132812 734.14121500651 731.882792154948 730.514078776042 729.328979492188 728.722086588542 730.361334906684 732.193589952257 733.719224717882 742.107123480903 742.275689019097 742.388834635417 742.911797417535 753.129157172309 780.785732693142 814.441216362847 840.825154622396 835.995591905382 817.844224717882 811.018086751302 816.829684787326 813.410407172309 810.224785698785 796.871209038628 764.532463921441 577.370591905382 512.731475830078 516.65532430013 457.815802680122 433.332885742188 407.336656358507 384.556579589844 360.420315212674 322.445393880208 294.05073038737 284.593509250217 275.278099907769 256.329484727648 246.344245062934 223.452323065864 191.763788859049 175.07529703776 160.143653021918 170.265168931749 161.142678154839 139.785171508789 118.12744225396 96.2807473076714 83.4719348483615 76.9588962131076 70.7830522325304 64.8951212565104 59.1346024407281 54.2918048434787 49.956612057156 45.7498406304253 42.0722088283963 37.5605227152506 34.9214820861816 31.92032178243 30.4746708340115 29.1960758633084 30.8445847829183 30.9983745151096 30.8187262217204 30.7297528584798 30.5781156751845 29.7551538679335 28.7854273054335 27.6325723859999 27.8372088538276 26.9824434916178 25.4181005689833 22.2973340352376 19.2575189802382 17.679443359375 19.1916904449463 20.8042244381375 21.1177798377143 21.1171894073486 21.9453319973416 22.9063593546549 23.5580518510607 23.8386565314399 23.8562427096897 24.3859458499485 24.8513194190131 26.0058852301704 25.701779683431 25.0751912858751 23.2384692298041 21.8532579210069 20.4075768788656 18.9957311418321 16.542960272895 14.3157741758558 14.7049440807766 16.2295997407701 17.6604436238607 18.4853551652696 18.2006702423096 17.773324754503 17.6659933725993 17.676352818807 17.4950133429633 17.1050819820828 16.5151538848877 15.6784301333957 15.807284673055 16.5493017832438 16.7859174940321 17.2670870886909 17.1125337812636 16.7094003889296 16.6959813435872 16.0032580693563 15.6914367675781
-9999 -9999 -9999 -9999 -9999 -9999 -9999 -9999 -9999 -9999 -9999 -9999 -9999 -9999 -9999 -9999 -9999 -9999 -9999 -9999 -9999 -9999 -9999 -9999 -9999 -9999 -9999 -9999 -9999 -9999 -9999 -9999 -9999 -9999 -9999 -9999 -9999 -9999 -9999 -9999 -9999 -9999 -9999 -9999 -9999 -9999 -9999 -9999 -9999 -9999 -9999 -9999 -9999 -9999 -9999 -9999 -9999 -9999 -9999 -9999 -9999 -9999 -9999 -9999 -9999 -9999 -9999 -9999 -9999 -9999 -9999 -9999 -9999 -9999 -9999 6.15765905380249 28.5654662450155 56.4394005669488 74.1484468248155 101.444676717122 110.790236579047 135.277290344238 164.877132839627 203.197579277886 226.521636962891 254.896558973524 279.288157145182 302.09908718533 323.487124972873 360.024214002821 377.960713704427 368.43743218316 398.571034749349 511.986982557509 603.319044325087 691.176900227865 729.01559109158 739.93073187934 741.405544704861 736.11331515842 730.747911241319 725.779100206163 719.359985351562 721.623799641927 725.134670681424 731.499782986111 736.162231445312 726.01416015625 718.140340169271 714.428181966146 707.839233398438 725.706793891059 728.518561469184 728.519293891059 728.71337890625 729.887932671441 732.987263997396 742.16315375434 742.278578016493 742.368292914496 742.36806233724 742.932508680556 751.330478244358 768.907965766059 794.85947672526 811.076395670573 793.030748155382 781.644124348958 781.64114718967 777.93212890625 770.302252875434 760.787719726562 755.041029188368 635.91758219401 498.953776041667 430.790035671658 390.872412787543 387.76958211263 372.491834852431 356.006659613715 340.560278998481 313.379306369358 286.194139268663 267.34051683214 263.829559326172 239.562132093641 220.847896999783 206.920143975152 185.27545844184 158.836807250977 149.873082478841 144.090899997287 135.860274420844 113.952295939128 98.5505642361111 84.8766920301649 76.3238661024306 71.3432930840386 66.8025355868869 62.1178766886393 57.1812138027615 52.5801230536567 48.3755671183268 45.3518367343479 41.5048056708442 37.7758420308431 34.7823757595486 31.3990874820285 30.1348588731554 33.4769859313965 32.9086765713162 32.5008118947347 32.1541868845622 31.292206870185 30.0670733981662 29.4918331570095 28.1426518758138 26.7732268439399 26.0532167222765 25.0076605478923 23.11931737264 20.2182193332248 19.5877715216743 18.8086020151774 20.5959688822428 21.7782272762722 22.2718906402588 22.2480189005534 22.6853822072347 23.4506850772434 24.0793645646837 24.4938587612576 24.4789538913303 24.6473583645291 25.3061057196723 26.1998229556613 25.9094060262044 24.8714781867133 22.8330264621311 21.5708094702827 20.0762638515896 18.5056898328993 16.3421617084079 14.5419174830119 16.3523236380683 17.661976284451 18.4323904249403 18.7656021118164 18.4897015889486 17.8101011912028 17.6767243279351 17.6295744578044 17.4591929117839 16.8980541229248 16.4846390618218 16.0174388885498 16.0488769743178 16.6235224405924 16.9015432993571 17.4776543511285 17.363869773017 16.8798605600993 16.7696774800618 16.1969064076742 15.6568120320638
-9999 -9999 -9999 -9999 -9999 -9999 -9999 -9999 -9999 -9999 -9999 -9999 -9999 -9999 -9999 -9999 -9999 -9999 -9999 -9999 -9999 -9999 -9999 -9999 -9999 -9999 -9999 -9999 -9999 -9999 -9999 -9999 -9999 -9999 -9999 -9999 -9999 -9999 -9999 -9999 -9999 -9999 -9999 -9999 -9999 -9999 -9999 -9999 -9999 -9999 -9999 -9999 -9999 -9999 -9999 -9999 -9999 -9999 -9999 -9999 -9999 -9999 -9999 -9999 -9999 -9999 -9999 -9999 -9999 -9999 -9999 -9999 -9999 -9999 1.65728373049448 18.9680466784371 45.6937561035156 73.0220570034451 92.0357004801432 118.655296325684 132.58277130127 146.828825208876 171.750886705187 209.821534898546 249.288887871636 281.342247856988 319.084991455078 357.97108968099 404.816480848524 458.845560709635 480.552134195964 488.728393554688 451.049546983507 523.76013522678 611.340121799045 673.540588378906 723.819451226128 729.864407009549 732.794121636285 729.457411024306 725.022732204861 728.300211588542 718.690192328559 702.832607693142 708.027750651042 716.990410698785 722.21198187934 709.33876546224 686.967603895399 710.576972113715 725.66891140408 728.998135036892 729.646714952257 730.477186414931 733.907897949219 737.338548448351 739.994927300347 742.762647840712 745.28505452474 752.408074273003 755.00927734375 751.466851128472 748.707377115885 749.72907172309 753.94716389974 769.106886121962 769.433295355903 756.965623643663 749.387125651042 718.581359863281 688.617092556424 664.363905164931 655.081882052951 619.475077311198 566.532287597656 415.163492838542 346.218695746528 332.508592393663 334.259487575955 345.670708550347 329.502343071832 304.63976711697 277.653689914279 239.788531833225 229.080374823676 210.934826321072 193.149653116862 175.341167873806 166.927800496419 149.061894734701 135.867748684353 128.249633789062 114.007853190104 100.227684868707 89.756590101454 79.0729276869032 70.7455274793837 65.3799824184842 62.8205083211263 59.1171107821994 54.8705880906847 50.2798063490126 45.9505865308973 43.8269030253092 40.8802291022407 37.3653958638509 33.7525174882677 34.6469281514486 34.8133265177409 34.9145367940267 34.2215160793728 33.7599788241916 33.423718770345 31.83737288581 30.2335652245416 29.4948016272651 27.5522107018365 25.9624243842231 24.7411946190728 23.3631015353733 21.7152271270752 20.5404605865479 19.9096762339274 20.851216422187 22.0212016635471 22.8522610134549 23.3553471035428 23.1235832638211 23.3748921288384 24.1024644639757 24.4376078711616 24.6270105573866 24.6055556403266 24.7218967013889 25.4434195624457 25.7785110473633 25.6108809577094 24.5686505635579 22.7610361311171 21.5092192755805 19.854341506958 18.1797313690186 16.4074521594577 14.3465965059068 16.9734808603923 18.3102444542779 18.5688531663683 18.5581183963352 18.719229804145 18.0425595177544 17.708733452691 17.645499335395 16.8726450602214 16.7899142371284 16.474915822347 16.5239734649658 16.5813077290853 16.6076276567247 16.7115207248264 17.4874884287516 17.5769318474664 17.125432756212 16.7102018992106 16.4633669323391 15.7523180643717
-9999 -9999 -9999 -9999 -9999 -9999 -9999 -9999 -9999 -9999 -9999 -9999 -9999 -9999 -9999 -9999 -9999 -9999 -9999 -9999 -9999 -9999 -9999 -9999 -9999 -9999 -9999 -9999 -9999 -9999 -9999 -9999 -9999 -9999 -9999 -9999 -9999 -9999 -9999 -9999 -9999 -9999 -9999 -9999 -9999 -9999 -9999 -9999 -9999 -9999 -9999 -9999 -9999 -9999 -9999 -9999 -9999 -9999 -9999 -9999 -9999 -9999 -9999 -9999 -9999 -9999 -9999 -9999 -9999 -9999 -9999 -9999 -9999 2.0551016330719 13.8202806578742 36.2863858540853 54.8412433200412 78.6750793457031 102.638710869683 130.401101854112 145.491156684028 159.903533935547 179.722893608941 213.764263576931 258.476947360569 298.311174180773 357.743194580078 456.916008843316 529.929728190104 580.744357638889 623.947252061632 636.506978352865 594.186170789931 565.553066677517 598.88333468967 696.499416775174 717.680820041233 717.673516167535 718.033738878038 717.640089246962 713.279215494792 724.141845703125 730.016432020399 708.956868489583 679.322204589844 665.323113335503 667.8349609375 693.119405110677 717.392374674479 728.983418782552 739.750617133246 744.663743760851 743.858337402344 740.147766113281 742.088846842448 745.015733506944 744.603983561198 744.301506890191 752.070115831163 775.838568793403 800.996527777778 804.103841145833 800.090705023871 780.8662109375 750.675557454427 725.095994737413 718.758734809028 710.083936903212 678.174065483941 653.152621799045 621.274427625868 572.244500054253 568.571797688802 534.822374131944 495.49755859375 448.114491780599 359.426066080729 301.013899061415 302.045878092448 311.542175292969 300.260064019097 279.098520914714 256.556649102105 226.524992201063 199.03939988878 183.726364135742 177.45595296224 155.984251234266 139.788550482856 135.966985914442 119.920134650336 113.140990363227 105.693051656087 96.2020060221354 85.5175382826063 75.9729622734917 68.147349887424 60.9778213500977 58.203480190701 54.8759201897515 51.2275021870931 46.9844546847873 43.1842528449165 41.2342970106337 38.0183957417806 33.9223524729411 36.5010958777534 37.6137279934353 37.2540817260742 36.7878807915582 36.1722590128581 35.6276134914822 34.2536392211914 31.6947689056396 30.4912448459201 29.3911416795519 27.6491652594672 26.0209219190809 24.4150246514214 22.7145426008436 21.4539165496826 20.7948803371853 22.1528767479791 22.4297996097141 23.3634577857123 23.7429277631972 23.778074476454 23.8048458099365 23.754084693061 24.3529190487332 24.6086220211453 24.7364362080892 24.6599424150255 24.9086305830214 25.5775655110677 25.5723480648465 25.1850045522054 24.1376251644558 22.6658738454183 21.3319483862983 19.6986062791612 17.9604244232178 16.2845510906643 14.4447967741224 17.2266629536947 18.6847784254286 18.6295977698432 18.6259206136068 18.6688933902317 18.6064631144206 17.9250814649794 17.750573264228 16.8972924550374 16.7933493720161 16.4941938188341 16.6146000756158 16.661875406901 16.5858754052056 16.6341285705566 17.3523428175184 17.6362556881375 17.465900209215 16.9267747667101 16.6955180697971 16.2609532674154
-9999 -9999 -9999 -9999 -9999 -9999 -9999 -9999 -9999 -9999 -9999 -9999 -9999 -9999 -9999 -9999 -9999 -9999 -9999 -9999 -9999 -9999 -9999 -9999 -9999 -9999 -9999 -9999 -9999 -9999 -9999 -9999 -9999 -9999 -9999 -9999 -9999 -9999 -9999 -9999 -9999 -9999 -9999 -9999 -9999 -9999 -9999 -9999 -9999 -9999 -9999 -9999 -9999 -9999 -9999 -9999 -9999 -9999 -9999 -9999 -9999 -9999 -9999 -9999 -9999 -9999 -9999 -9999 -9999 -9999 -9999 -9999 5.63836454600096 14.7974552810192 41.8378234439426 57.3527213202582 68.3582102457682 89.1386523776584 110.671745300293 141.070248921712 161.666381835938 172.999016655816 187.871687147352 221.677697075738 266.30940246582 321.092041015625 389.64658610026 496.718309190538 654.302917480469 747.535420735677 762.326321072049 736.967149522569 697.200724283854 673.952358669705 641.702501085069 672.495340983073 697.880432128906 711.627922905816 705.023871527778 694.599433051215 697.886094835069 694.898132324219 706.653489854601 680.180650499132 637.896206325955 640.604871961806 681.181464301215 714.157972547743 721.637200249566 733.724792480469 742.967163085938 752.700737847222 756.655768500434 750.614318847656 748.207160101996 751.297492133246 753.838894314236 752.782043457031 752.602708604601 770.929890950521 811.148871527778 825.63180202908 824.925164116753 818.952256944444 780.346842447917 732.622884114583 671.173685709635 622.809136284722 605.662584092882 574.89603000217 545.287848578559 472.667826334635 469.902991400825 459.454213460286 431.652025010851 387.693834092882 340.327748616536 286.038611518012 273.132402208116 280.772813585069 266.735921223958 250.420805189345 240.087112426758 218.858084784614 186.620308770074 167.114230685764 155.191614786784 145.89336988661 130.146801418728 119.371187845866 110.240196228027 100.569059583876 93.6074311998155 86.2583448621962 79.676636589898 71.5178646511502 63.7821782430013 58.3583666483561 54.4453319973416 51.7552456325955 49.3343900044759 44.3736686706543 42.2835214402941 40.7805616590712 41.8782306247287 41.2329661051432 40.3459074232313 40.1709124247233 39.9079670376248 39.4900555080838 38.6370277404785 37.2743242051866 35.3185611300998 32.3246076371935 30.5583299001058 29.317291047838 27.7610734303792 26.3363918728299 24.9579836527506 23.0359151628282 21.8492416805691 21.3907042609321 22.5930690765381 23.5093583001031 24.2613836924235 24.6461520724826 24.6105414496528 24.7916651831733 24.7059374915229 24.6940818362766 24.8107058207194 24.6272574530707 24.6204761928982 25.2324805789524 25.7112738291423 25.5840882195367 24.8334715101454 23.6165739695231 22.1805888281928 20.9504008822971 19.5944249894884 17.6592123243544 16.2883696026272 15.1155999501546 17.2755377027724 18.6519379085965 18.604253133138 18.6523861355252 18.6865683661567 18.6214913262261 18.5174482133653 17.6101623111301 17.1576658884684 16.8106897142198 16.463922712538 16.8578995598687 17.3702138264974 17.3811049991184 17.599855211046 18.0104779137505 17.7826794518365 17.5651251475016 17.3236429426405 17.0724533928765 16.6674798329671
-9999 -9999 -9999 -9999 -9999 -9999 -9999 -9999 -9999 -9999 -9999 -9999 -9999 -9999 -9999 -9999 -9999 -9999 -9999 -9999 -9999 -9999 -9999 -9999 -9999 -9999 -9999 -9999 -9999 -9999 -9999 -9999 -9999 -9999 -9999 -9999 -9999 -9999 -9999 -9999 -9999 -9999 -9999 -9999 -9999 -9999 -9999 -9999 -9999 -9999 -9999 -9999 -9999 -9999 -9999 -9999 -9999 -9999 -9999 -9999 -9999 -9999 -9999 -9999 -9999 -9999 -9999 -9999 -9999 -9999 -9999 3.64389618237813 24.9644071790907 43.6772289276123 60.2115169101291 75.6015065511068 87.1585108439128 101.516495598687 121.460582309299 154.089094373915 174.325213962131 185.774675157335 200.249277750651 233.71996222602 275.573462592231 329.897342258029 394.982025146484 471.915205213759 568.34518093533 743.336100260417 758.624070909288 751.957390679253 755.085510253906 728.913126627604 708.902350531684 685.003248426649 660.72262234158 667.838745117188 678.816779242621 658.669189453125 628.880255805121 607.773288302951 602.669304741753 620.967915852865 657.088582356771 688.526902940538 708.714152018229 710.236117892795 718.046732584635 728.453687879774 737.538411458333 746.419508192274 756.390774197049 759.206766764323 756.914842393663 757.171522352431 762.053371853299 765.840928819444 767.39997016059 770.23200141059 779.251878526476 786.532762315538 802.386623806424 815.75537109375 792.17376030816 757.483167860243 715.938368055556 616.817864312066 540.223693847656 485.317426893446 453.196445041233 419.1314324273 402.425957573785 395.575907389323 378.220099555122 353.171152750651 309.654106987847 276.985012478299 247.561820136176 257.626269870334 247.941494411892 232.112636990017 217.316626654731 199.484512329102 173.449744330512 154.605699327257 140.61722140842 133.314817640516 119.363407558865 106.00119527181 99.1830791897244 90.7046500311957 83.5181011623806 77.5676871405707 72.942138671875 66.6371387905545 61.447454240587 56.3132684495714 52.3551156785753 49.728444841173 47.3445621066623 44.7438600328233 42.2833027309842 43.7662518819173 44.5120709737142 44.193844265408 44.2748391893175 43.4055565728082 42.7479218377007 42.1864590115017 40.7583346896701 38.3880801730686 36.1221605936686 34.005121866862 31.6470830705431 30.1118869781494 28.4659921858046 26.8618723551432 25.8993097941081 24.1031790839301 22.8419193691678 22.9751591152615 23.4374230702718 24.4676568773058 25.3549688127306 25.6982947455512 25.7320728302002 25.633321762085 25.4593291812473 25.4215647379557 25.4724093543159 25.205012427436 25.3156390719944 25.5465284983317 25.6823086208767 25.3192401462131 24.4449852837457 23.2909475962321 21.9556819068061 20.3901752895779 18.9610483381483 18.0670971340603 16.6259268654717 15.8321646584405 17.2588344150119 18.7136294047038 18.6223169962565 18.6280911763509 18.4484539031982 18.4561388227675 18.5777484046088 18.1300080617269 17.471127404107 16.8782812754313 16.8549418979221 17.5202028486464 17.9346489376492 18.2148655785455 18.0554135640462 18.109343846639 17.875945409139 17.50260565016 17.3131260342068 17.0562305450439 16.6695737838745
-9999 -9999 -9999 -9999 -9999 -9999 -9999 -9999 -9999 -9999 -9999 -9999 -9999 -9999 -9999 -9999 -9999 -9999 -9999 -9999 -9999 -9999 -9999 -9999 -9999 -9999 -9999 -9999 -9999 -9999 -9999 -9999 -9999 -9999 -9999 -9999 -9999 -9999 -9999 -9999 -9999 -9999 -9999 -9999 -9999 -9999 -9999 -9999 -9999 -9999 -9999 -9999 -9999 -9999 -9999 -9999 -9999 -9999 -9999 -9999 -9999 -9999 -9999 -9999 -9999 -9999 -9999 0.00146663235500455 -0.0909888222813606 -9999 -9999 3.73627874243539 37.6964975992839 68.5845557318793 64.316534254286 89.0147620307075 105.570956759983 122.961555480957 141.172490437826 165.82989332411 193.250871446398 202.09499613444 218.619049072266 245.9144660102 288.829440646701 346.562184651693 407.575442843967 463.121483696832 528.262329101562 679.345757378472 727.231764051649 729.41015625 734.697136773003 732.738932291667 724.048522949219 701.919230143229 650.06894938151 609.737535264757 601.348612467448 587.042141384549 561.531989203559 586.06633843316 636.301249186198 680.09270562066 702.68704562717 714.275505913628 714.426452636719 716.068183051215 710.679918077257 718.345038519965 728.155904134115 738.015062120226 748.865390353733 757.341220431858 763.294786241319 765.966098361545 770.963487413194 788.702724880642 803.172085232205 806.368943956163 794.879374186198 767.866394042969 755.790791829427 769.44280327691 779.530632866753 766.464219835069 738.462131076389 686.838127983941 608.404174804688 520.295488145616 456.412295871311 393.403089735243 359.711283365885 330.578063964844 321.686011420356 318.055023193359 290.455705430773 258.792868720161 238.617001003689 221.044174194336 230.241122775608 217.015123155382 202.693205091688 187.125701904297 169.248407999674 150.433344523112 136.072408040365 122.426520453559 109.766317579481 98.387700398763 90.9336666531033 83.3522033691406 76.9744169447157 71.8953755696615 67.0024829440647 62.4435997009277 57.9175440470378 54.600030263265 50.965399424235 48.5624474419488 46.5696186489529 45.6393280029297 46.8537245856391 47.9011090596517 48.4378267923991 48.5824106004503 48.3934682210286 46.2893608940972 45.1934695773654 44.3038105434842 42.4054383171929 39.6807619730631 37.7343050638835 35.6162334018283 33.2824575636122 31.1710029178195 29.8908799489339 28.5188475714789 28.1356489393446 26.898681640625 23.9772845374213 23.6128431955973 24.6257033877903 25.7635807461209 26.2618649800618 26.6472009023031 26.5631707509359 26.3332699669732 26.1869945526123 25.6326897939046 25.5540616777208 25.7743583255344 26.0276648203532 26.4059340159098 26.3414431677924 25.4653212229411 24.5539332495795 23.1542544894748 21.9448765648736 20.2825067308214 18.9479298061795 18.5771452585856 16.8795324961344 16.4737816916572 17.6032316419813 18.6160895029704 18.6773319244385 18.6517018212212 18.6814484066433 18.7139750586616 18.7065304650201 18.6909779442681 18.2313482496474 17.558102077908 17.5547591315375 17.6800793541802 18.5285057491726 18.5594160291884 18.7170276641846 18.4994947645399 17.943918440077 17.6309405432807 17.4057863023546 17.2059008280436 16.7975263595581
-9999 -9999 -9999 -9999 -9999 -9999 -9999 -9999 -9999 -9999 -9999 -9999 -9999 -9999 -9999 -9999 -9999 -9999 -9999 -9999 -9999 -9999 -9999 -9999 -9999 -9999 -9999 -9999 -9999 -9999 -9999 -9999 -9999 -9999 -9999 -9999 -9999 -9999 -9999 -9999 -9999 -9999 -9999 -9999 -9999 -9999 -9999 -9999 -9999 -9999 -9999 -9999 -9999 -9999 -9999 -9999 -9999 -9999 -9999 -9999 -9999 -9999 -9999 -9999 -9999 -9999 -9999 -0.0514121460728347 -0.141278704938789 0.00800000037997961 4.91393267177045 27.3673389222887 56.7846772935655 87.5762320624457 91.2049128214518 98.7820180257161 119.242702907986 137.548857794868 159.349892510308 176.727735731337 202.741383870443 223.749728732639 239.087314181858 272.205612182617 323.480977376302 380.728847927517 429.993170844184 475.544670952691 522.549021402995 582.808831108941 676.033976236979 715.626369900174 719.335089789496 724.169596354167 727.634033203125 681.002285427517 613.842861599392 565.719665527344 547.666904025608 541.304287380642 578.887613932292 625.83938937717 681.046054416233 716.820366753472 720.564636230469 723.282097710503 724.117967393663 721.843553331163 715.902431911892 711.109571668837 716.928331163194 727.440436469184 737.339586046007 750.014506022135 761.65325249566 772.725524902344 777.509826660156 781.944769965278 790.735609266493 807.615776909722 814.733412000868 786.416625976562 767.010070800781 754.048421223958 749.620856391059 753.61614312066 752.450602213542 737.305399576823 667.461608886719 588.446153428819 540.966484917535 471.739512125651 394.238878038194 332.003733317057 290.376102023654 279.390184190538 262.031429714627 234.283791436089 227.526421440972 210.482993231879 202.622531467014 202.802925957574 189.720219930013 178.151965671115 161.428765190972 142.949898613824 128.857793172201 116.116314358181 104.255284627279 94.8611653645833 87.1753735012478 79.3704537285699 71.4264840020074 66.855845981174 63.3571370442708 59.6730783250597 56.5006141662598 53.3416019015842 51.3175773620605 53.1038678487142 55.6168420579698 54.9007898966471 53.2369821336534 54.0493418375651 54.2001075744629 53.1552450391981 50.7873797946506 48.5692532857259 47.3867263793945 46.3817460801866 44.7156287299262 42.6391927931044 39.8127161661784 37.0671789381239 34.7934108310276 32.9381766849094 31.6774397956 30.7582751380073 30.5438124338786 27.0423494974772 25.5621299743652 25.4803897009955 26.1981069776747 26.8763749864366 27.2938158247206 27.4297050899929 27.3262356652154 26.9017988840739 26.689110438029 26.3917586008708 26.1249614291721 26.4989128112793 26.5968178643121 26.6483395894368 26.3086844550239 25.1346906026204 24.0844942728678 23.0622702704536 21.9558520846897 20.9027044508192 19.7464909023709 20.2175407409668 17.3386645846897 17.3211572435167 18.0720833672418 18.746929804484 18.6436038547092 18.6491900549995 18.5677004920112 18.6588887108697 18.6649205949571 18.2605870564779 17.8424640231662 17.7440325419108 17.8166995578342 18.5073941548665 18.7639789581299 19.302592171563 18.7025458017985 18.4546678331163 17.9810913933648 17.6167744530572 17.6426342858209 17.3927552964952 16.6797908147176
-9999 -9999 -9999 -9999 -9999 -9999 -9999 -9999 -9999 -9999 -9999 -9999 -9999 -9999 -9999 -9999 -9999 -9999 -9999 -9999 -9999 -9999 -9999 -9999 -9999 -9999 -9999 -9999 -9999 -9999 -9999 -9999 -9999 -9999 -9999 -9999 -9999 -9999 -9999 -9999 -9999 -9999 -9999 -9999 -9999 -9999 -9999 -9999 -9999 -9999 -9999 -9999 -9999 -9999 -9999 -9999 -9999 -9999 -9999 -9999 -9999 -9999 -9999 -9999 -9999 -9999 -0.158460542559624 5.73159180395305 10.3423598839177 6.7293255523675 19.9501907030741 37.8036689758301 55.3228005303277 83.7384906344944 113.120909796821 118.578330993652 131.133906046549 148.902308146159 174.209245469835 198.041168212891 216.522567749023 239.511800130208 262.842617458767 304.312086317274 364.865349663628 429.996571858724 502.275655110677 564.323092990451 583.770460340712 588.945848253038 626.247165256076 685.788201226128 706.51705593533 704.773878309462 695.218322753906 644.75819905599 585.094278971354 540.999382866753 509.790079752604 530.457038031684 574.304144965278 636.62702094184 704.66012234158 713.81581624349 721.541951497396 729.772223578559 731.803236219618 727.502271864149 723.900207519531 719.105997721354 716.144843207465 721.525132921007 727.778442382812 736.89756266276 743.779690212674 754.908433702257 775.421780056424 786.247443305121 788.465698242188 779.325547960069 770.83544921875 772.099819607205 774.019775390625 766.655192057292 749.626871744792 734.065673828125 722.578850640191 741.768717447917 710.497734917535 632.772637261285 583.927415635851 506.612972683377 435.113186306424 360.825103759766 297.934882269965 257.641698201497 231.617838541667 219.408240424262 212.576477050781 203.284239027235 188.208419799805 181.155756632487 176.351567586263 162.885347154405 150.495240953233 137.432086520725 124.759437561035 111.486211988661 101.45230017768 92.3586654663086 84.757196214464 78.4663323296441 71.4709667629666 67.0314297146267 63.7352947658963 60.8612255520291 56.9002867804633 53.4646140204536 57.4375283983019 61.2658920288086 61.4577607048882 60.0029152764214 59.0937440660265 58.3703634474013 58.0403450859918 55.5443530612522 53.2265764872233 51.4167535569933 49.948067135281 48.7822541130914 47.0701260036892 45.1897502475315 41.9641176859538 39.2883122762044 36.7895554436578 34.9731157090929 33.8209309048123 31.9189779493544 29.6512192620171 28.3060516781277 27.1095750596788 27.4234720865885 27.5596908993191 28.1439310709635 28.4052115546332 28.1054448021783 28.0960782368978 27.6268865797255 27.5857054392497 27.4920588599311 26.9329814910889 26.8618159823947 26.8077636294895 26.7166489495171 26.2271597120497 24.9671853383382 23.861781862047 23.1928666432699 22.2918290032281 21.0644785563151 19.7250944773356 19.3289303249783 18.3049102359348 18.2260754903158 18.3699876997206 18.6433578067356 18.6726309458415 18.6252023908827 18.531651602851 18.6696421305339 18.6004534827338 17.822701772054 17.7936941782633 17.9215361277262 18.1766179402669 18.653993818495 18.9030250973172 18.7479544745551 18.6887529161241 18.485924826728 17.972815407647 17.9061936272515 17.7337112426758 17.646687189738 16.7722028096517
-9999 -9999 -9999 -9999 -9999 -9999 -9999 -9999 -9999 -9999 -9999 -9999 -9999 -9999 -9999 -9999 -9999 -9999 -9999 -9999 -9999 -9999 -9999 -9999 -9999 -9999 -9999 -9999 -9999 -9999 -9999 -9999 -9999 -9999 -9999 -9999 -9999 -9999 -9999 -9999 -9999 -9999 -9999 -9999 -9999 -9999 -9999 -9999 -9999 -9999 -9999 -9999 -9999 -9999 -9999 -9999 -9999 -9999 -9999 -9999 -9999 -9999 -9999 -9999 -9999 -9999 4.90018278826028 18.5602826012505 36.4924153221978 36.445353825887 36.4291631910536 57.5078027513292 68.3692995707194 89.0771908230252 124.190633138021 140.472500271267 150.613784790039 171.292319403754 193.566502888997 215.502170138889 234.179590861003 247.729166666667 275.625288221571 328.944291856554 396.310709635417 522.870361328125 634.703355577257 711.864468044705 674.09817843967 638.802693684896 650.158806694878 693.359063042535 698.683186848958 691.62978108724 684.596469455295 644.607930501302 580.276963975694 527.660888671875 491.976437038845 485.817979600694 532.200775146484 596.51171875 677.355075412326 712.843736436632 715.234842936198 721.544243706597 728.650383843316 731.059265136719 731.053453233507 728.407477484809 724.702073838976 723.788825141059 721.320888943142 723.025132921007 732.532579210069 739.290486653646 748.649909125434 764.056728786892 780.407640245226 794.801099989149 790.797715928819 776.046671549479 763.186998155382 759.221428765191 754.039964463976 744.397549099392 694.968566894531 672.174323187934 646.253017849392 617.814900716146 562.044453938802 511.581776936849 440.415059407552 365.218726264106 305.97760687934 255.127421061198 227.139865451389 207.396723429362 193.791836208767 185.362687852648 178.517935858832 168.695217556424 161.002561781141 152.842196994358 141.650139702691 130.137585110135 117.352170308431 108.071274651421 98.2152218288845 90.6350902981228 84.5376561482747 78.7261276245117 72.9073223537869 69.0322087605794 65.4970486958822 60.7418513827854 57.3045137193468 58.5893902248806 64.7986869812012 66.3012330796983 64.7313507927789 64.7655915154351 63.3291952345106 62.7064921061198 61.439821879069 58.962767706977 56.5062823825412 54.8291206359863 53.375057220459 51.8254390292697 50.0941013760037 48.0055919223362 44.8782119750977 42.4331571790907 39.6896726820204 37.3452127244737 35.1629367404514 32.6130527920193 29.9026792314317 29.3090294731988 29.3605812920464 29.1955636342367 28.8643610212538 29.1368681589762 28.995421939426 28.613527086046 28.4725426567925 28.2659210628933 27.609614054362 27.5420330895318 27.339925342136 26.8008592393663 26.2399732801649 25.9041239420573 25.3056619432237 24.5091114044189 23.5752495659722 22.8236272599962 22.1722708808051 20.6223521762424 19.4729069603814 19.0432936350505 18.0183414883084 17.6695713467068 17.9065288967556 18.5511525472005 18.7356236775716 18.6822997199164 18.6752351125081 18.7864411671956 18.6597222222222 17.9998099009196 17.8731191423204 18.3249490525987 18.5845815870497 19.1334546407064 19.467532687717 19.2627061208089 19.2292766571045 18.7738333808051 18.1292758517795 17.8319452073839 17.8568064371745 17.7607892354329 17.4505341847738
-9999 -9999 -9999 -9999 -9999 -9999 -9999 -9999 -9999 -9999 -9999 -9999 -9999 -9999 -9999 -9999 -9999 -9999 -9999 -9999 -9999 -9999 -9999 -9999 -9999 -9999 -9999 -9999 -9999 -9999 -9999 -9999 -9999 -9999 -9999 -9999 -9999 -9999 -9999 -9999 -9999 -9999 -9999 -9999 -9999 -9999 -9999 -9999 -9999 -9999 -9999 -9999 -9999 -9999 -9999 -9999 -9999 -9999 -9999 -9999 -9999 -9999 -9999 -9999 -9999 0.99442096427083 14.7900138166216 27.0615497165256 44.7812059190538 60.1421525743273 67.4653578864203 87.8414722018772 104.182442559136 115.54729546441 135.713610331217 161.566652086046 177.981223212348 186.607594807943 208.994764539931 235.819115532769 256.301359388563 269.574025472005 293.147857666016 336.263780381944 407.371877034505 528.170576307509 731.226867675781 746.936964246962 730.506462944878 700.492004394531 695.282606336806 699.46393500434 695.452317979601 685.60215250651 668.273647732205 632.947279188368 592.862175835503 539.07899983724 493.288950602214 461.066385904948 503.24799601237 548.855638292101 596.895968967014 639.908603244358 685.155124240451 713.093126085069 723.423231336806 729.128092447917 730.794080946181 742.987508138021 735.351053873698 729.969835069444 724.81403266059 718.128112792969 717.895582411024 723.962185329861 738.002570258246 751.657958984375 755.268527560764 757.603183322483 777.353183322483 779.487562391493 767.704718695746 758.172302246094 749.250895182292 736.668131510417 705.255744086371 620.659444173177 555.26810031467 529.670715332031 524.321889241536 498.29209391276 445.100775824653 363.08457438151 296.527547200521 245.4730597602 225.071333143446 202.751870049371 184.382378472222 172.54443359375 165.753789265951 156.989237467448 151.0738152398 143.826451619466 133.720708211263 122.590057373047 112.500368754069 105.246782938639 99.0201585557726 91.4695443047417 84.9755087958442 79.2527838812934 73.8784255981445 69.803229437934 65.2218280368381 61.9536849127875 61.0565388997396 69.0934757656521 70.7101652357313 69.6390635172526 68.8023020426432 68.3715599907769 66.7113876342773 65.7408565945096 64.497981177436 63.4882418314616 60.6831330193414 59.0831815931532 57.4806510077582 55.6705521477593 53.9403584798177 51.0190027025011 47.9400350782606 44.3152347140842 41.9192093743218 38.5663312276204 35.5399670071072 32.9315215216743 30.9310184054904 30.8772682613797 31.3721004062229 31.1183342403836 30.8077343834771 30.223400539822 30.0729132758247 29.422077814738 29.2578286064996 28.7175776163737 28.29474512736 27.7506887647841 27.1778011322021 26.4276413387722 25.7773484124078 24.9155762990316 24.5380965338813 24.0011605156793 23.3060075971815 22.6791723039415 22.1857198079427 20.6284156375461 19.6649210188124 18.7325600518121 18.6533317565918 17.8155153062608 18.0918672349718 18.6493038601345 18.7047731611464 18.9484575059679 18.6929219563802 18.7795643276638 19.0226482815213 18.6256554921468 18.5176491207547 18.6525970035129 18.7498380872938 19.6251797146267 19.6464400821262 19.5063716040717 19.5412394205729 18.9474688635932 18.4179869757758 17.7433024512397 17.6965211232503 17.7267935011122 17.7089955012004
-9999 -9999 -9999 -9999 -9999 -9999 -9999 -9999 -9999 -9999 -9999 -9999 -9999 -9999 -9999 -9999 -9999 -9999 -9999 -9999 -9999 -9999 -9999 -9999 -9999 -9999 -9999 -9999 -9999 -9999 -9999 -9999 -9999 -9999 -9999 -9999 -9999 -9999 -9999 -9999 -9999 -9999 -9999 -9999 -9999 -9999 -9999 -9999 -9999 -9999 -9999 -9999 -9999 -9999 -9999 -9999 -9999 -9999 -9999 -9999 -9999 -9999 0.0139094246551394 5.08644401033719 4.10824477175872 8.36101681821876 26.4220111634996 36.5550291273329 52.7672975328233 75.7250272962782 91.7064666748047 110.94054751926 128.143850538466 140.277935451931 153.830627441406 171.057054307726 192.745257907444 205.585996839735 229.04773288303 261.54093085395 278.305704752604 286.393805609809 307.22743733724 346.791283501519 412.077392578125 519.57775539822 719.090779622396 738.363118489583 732.173522949219 726.202195909288 708.38417561849 698.406968858507 695.704474555121 690.64442952474 662.016493055556 618.640353732639 572.15335422092 523.265418158637 471.780782063802 440.743031819661 482.254170735677 502.753526475694 517.445949978299 532.93116929796 549.637234157986 597.876085069444 660.71780734592 713.940110948351 723.207404242621 726.919087727865 735.034884982639 736.407463921441 730.374620225694 722.858127170139 717.782979329427 716.907904730903 718.180799696181 729.306810167101 743.323737250434 750.524746365017 745.125990125868 751.097262912326 760.662272135417 756.285888671875 745.971320258246 729.961839463976 710.931064181858 625.87151421441 547.511969672309 476.573415120443 437.111348470052 431.480780707465 412.726226806641 347.007412380642 281.705905490451 240.064758300781 220.891604953342 199.964898003472 180.515231662326 165.120725843641 156.531650119358 148.753684149848 142.094809638129 137.175311618381 129.564101325141 120.709298027886 112.547499762641 105.235133700901 99.0936838785807 92.2318394978841 86.2137154473199 80.4572380913628 75.0653457641602 70.5445183648003 67.0016259087457 65.7364870707194 69.6199014451769 76.3628243340386 76.5012885199653 75.4464306301541 74.7123090955946 72.5115407307943 70.9391869439019 70.038207160102 68.2377259996202 67.3005142211914 65.3662974039713 62.9878527323405 61.1819623311361 59.4732547336154 57.5397304958767 54.0314008924696 50.1450394524468 47.046868218316 43.4612774319119 39.1888109842936 35.649730682373 34.209290822347 32.6674834357368 32.7993075052897 33.201182047526 33.1368738810221 32.3188124762641 31.6084302266439 30.9887250264486 30.4801599714491 29.9027769300673 29.3433318667942 28.6782987382677 27.8876219855414 27.0367401970757 26.1615623897976 25.4825375874837 24.5443890889486 24.256308025784 23.4262074364556 22.7810344696045 22.2219420539008 21.7434584299723 20.8795619540744 19.4401058620877 19.1385481092665 19.6274424658881 19.1213003794352 18.9915637969971 19.0409314897325 19.1110390557183 19.4307958814833 19.117009056939 19.177575217353 19.5102062225342 19.2053464253743 18.6699078877767 19.0669441223145 19.3274080488417 19.9017916785346 19.8531954023573 19.4233167436388 19.4718201955159 19.2648465898302 18.7477304670546 18.4437387254503 18.2076053619385 17.8821631537543 17.7805287043254
-9999 -9999 -9999 -9999 -9999 -9999 -9999 -9999 -9999 -9999 -9999 -9999 -9999 -9999 -9999 -9999 -9999 -9999 -9999 -9999 -9999 -9999 -9999 -9999 -9999 -9999 -9999 -9999 -9999 -9999 -9999 -9999 -9999 -9999 -9999 -9999 -9999 -9999 -9999 -9999 -9999 -9999 -9999 -9999 -9999 -9999 -9999 -9999 -9999 -9999 -9999 -9999 -9999 -9999 -9999 -9999 -9999 -9999 -9999 -9999 -9999 -9999 3.11454441065767 19.1476303736369 26.7089337242974 37.1668686336941 55.123585595025 55.290212419298 58.7901166280111 80.5749782986111 110.040043301053 132.419182671441 144.700542873806 154.683714124891 170.416130913628 186.929477267795 199.197679307726 224.558434380425 246.283284505208 280.32477484809 295.474107530382 307.91899617513 337.039588080512 380.988433837891 425.53424750434 486.942237006293 664.925428602431 690.422668457031 720.623270670573 725.833719889323 713.315192328559 685.824469672309 682.868001302083 682.880581325955 637.392503526476 567.95403374566 500.659105088976 471.118869357639 439.914689805773 410.205054389106 458.069163004557 473.677110460069 477.064632839627 484.831966824002 497.596184624566 518.939117431641 540.621310763889 579.128173828125 636.747707790799 669.581821017795 713.152777777778 742.902086046007 728.167853461371 724.009141710069 721.762464735243 718.552829318576 717.435377332899 714.859883626302 716.971530490451 730.822089301215 743.861809624566 742.240058051215 732.835734049479 731.625840928819 730.219441731771 704.884297688802 679.544440375434 612.711886935764 550.17623562283 476.096082899306 403.087066650391 355.153065999349 353.529351128472 317.625311957465 261.24526807997 231.032702975803 211.095067342122 196.248280843099 178.608361138238 158.812749226888 150.03879292806 142.844770643446 136.828904893663 129.654682583279 123.392183939616 116.890113830566 110.376072353787 104.740933736165 97.7876646253798 91.7431310017904 86.0323248969184 79.8536783854167 75.171142578125 71.7660734388563 69.8044001261393 74.4658042060004 81.3241636488173 83.417470296224 83.5103022257487 81.6666929456923 79.3086751302083 79.1936374240451 77.2530949910482 75.9631101820204 74.5601993136936 73.192512512207 70.8177354600694 67.7434531317817 65.303584628635 63.4675008985731 61.2525995042589 58.4429423014323 52.3118735419379 48.5551969740126 45.233639187283 41.5933464898003 38.9354735480415 37.6269645690918 35.8979602389865 34.7325973510742 35.4110488891602 35.2104114956326 33.8507546318902 32.6957511901855 31.950127919515 31.4070063696967 30.5584566328261 29.722923066881 29.0501467386881 28.3132731119792 27.2298052046034 26.3471794128418 25.2223875257704 24.6228336758084 23.5921471913656 22.7906133863661 22.501767900255 21.9657798343235 21.6107165018717 21.1367111206055 20.4259211222331 21.7324854532878 20.6114109887017 20.7277541690403 19.5766175587972 19.3356185489231 19.4737478892008 19.4492954678006 19.4353141784668 19.291017320421 19.4221901363797 19.3766481611464 19.4599708980984 19.6961911519368 19.5918699900309 19.5372640821669 20.0273585849338 19.3557056850857 19.2968790266249 19.2638664245605 19.0580887264676 18.6386466556125 18.2626993391249 17.9440629747179 17.905971844991
-9999 -9999 -9999 -9999 -9999 -9999 -9999 -9999 -9999 -9999 -9999 -9999 -9999 -9999 -9999 -9999 -9999 -9999 -9999 -9999 -9999 -9999 -9999 -9999 -9999 -9999 -9999 -9999 -9999 -9999 -9999 -9999 -9999 -9999 -9999 -9999 -9999 -9999 -9999 -9999 -9999 -9999 -9999 -9999 -9999 -9999 -9999 -9999 -9999 -9999 -9999 -9999 -9999 -9999 -9999 -9999 -9999 0.0617794394493103 0.793500937055796 -9999 -9999 -0.0588879163066546 19.3194275432163 44.6654855940077 51.9387736850315 59.3528912862142 68.6934979756673 76.0398809644911 67.5677210489909 82.0366770426432 115.390669080946 139.761964586046 157.045939127604 172.951636420356 184.882583618164 199.747282240126 222.023890177409 241.087607489692 262.528654310438 298.094421386719 320.223812527127 343.491763644748 389.679138183594 453.459954155816 528.942392985026 539.977864583333 571.785725911458 672.582858615451 717.271314832899 728.497165256076 723.337429470486 691.51911078559 646.997436523438 626.831047905816 588.359978569878 541.018676757812 457.761793348524 393.884216308594 376.048858642578 408.954098171658 438.195217556424 447.670047336154 450.830925835503 462.601762559679 469.61376953125 483.974185519748 504.486589219835 530.242001003689 558.828369140625 586.45615641276 640.958082411024 717.76373969184 741.271118164062 719.982028537326 721.569017198351 722.400560167101 722.00331624349 719.425571017795 714.044080946181 708.77724202474 715.883009168837 731.8232421875 735.270433213976 721.607421875 704.775037977431 670.108615451389 638.196858723958 587.595289442274 532.69394938151 477.636233859592 419.790856255425 347.077992757161 297.473198784722 276.956770155165 236.010221693251 212.187484741211 195.430477566189 180.994140625 166.817462497287 153.686024983724 144.143658108181 135.892573038737 130.140902201335 124.187422010634 118.202582465278 113.263548956977 107.906600952148 101.822370741102 95.9632051255968 89.643552992079 84.2620586819119 79.1885469224718 76.6228569878472 73.8804389105903 75.5181376139323 82.6320436265733 87.6935229831272 91.0225389268663 92.2251069810655 90.8088870578342 89.3026877509223 88.1753192477756 85.844487508138 83.110237121582 81.4369057549371 79.2923914591471 76.2185923258463 73.2969309488932 71.286127726237 69.4359563191732 66.1063613891602 62.4294556511773 56.5857620239258 52.5275514390733 49.3557082282172 46.2524325052897 44.1441485087077 41.3468293084039 38.2328364054362 36.6223242017958 37.1976593865289 36.9621802435981 36.0269571940104 34.1078308953179 32.9629046122233 32.2026227315267 31.2514322068956 30.4896028306749 29.697385152181 28.7555984920926 27.6419107649061 26.6199472215441 25.450557284885 24.855193456014 23.8231648339166 22.6379845937093 22.9655329386393 22.7671288384332 22.4283430311415 22.4452154371474 23.0452365875244 24.2858450147841 21.1749471028646 22.3094685872396 21.0455466376411 19.8910461001926 19.5944381290012 19.3308281368679 19.2621317969428 19.4183972676595 19.4607332017687 19.4945691426595 19.612915886773 20.2462370130751 20.5449415842692 21.0939432779948 19.6647942860921 19.6928304036458 19.398371802436 19.3789168463813 19.3502966562907 18.879692501492 18.6002561781141 18.293160756429 17.9308547973633
-9999 -9999 -9999 -9999 -9999 -9999 -9999 -9999 -9999 -9999 -9999 -9999 -9999 -9999 -9999 -9999 -9999 -9999 -9999 -9999 -9999 -9999 -9999 -9999 -9999 -9999 -9999 -9999 -9999 -9999 -9999 -9999 -9999 -9999 -9999 -9999 -9999 -9999 -9999 -9999 -9999 -9999 -9999 -9999 -9999 -9999 -9999 -9999 -9999 -9999 -9999 -9999 -9999 -9999 -9999 -9999 2.51788774132729 0.904169546854165 2.28433404521396 1.20412787795067 1.00772944092751 4.55282383731433 37.7435603671604 70.953980339898 71.6687639024523 76.7493311564128 83.6827163696289 92.3836508856879 91.0667775472005 85.1832826402452 111.280594719781 140.75464714898 162.679882473416 184.001980251736 200.924162122938 218.307941012912 238.460013495551 256.414360894097 280.128845214844 307.871171739366 347.329874674479 401.529602050781 472.640577528212 560.476223415799 629.104641384549 604.518425835503 647.402825249566 693.214341905382 716.169297960069 738.380493164062 736.048502604167 724.792778862847 686.048604329427 589.567789713542 509.743459065755 465.560472276476 443.51466539171 380.444461398654 362.842471652561 404.594119601779 421.311821831597 428.177503797743 429.340942382812 442.402109781901 449.552947998047 455.569329155816 472.692352294922 492.361287434896 513.257575141059 537.863789876302 572.586351182726 619.240709092882 686.297960069444 728.134914822049 735.017985026042 730.146647135417 723.869581434462 724.820760091146 724.316216362847 720.74267578125 711.826280381944 704.352240668403 709.29677327474 715.304016113281 693.286872016059 667.794670952691 633.84078640408 580.715772840712 525.705057779948 472.447658962674 410.213894314236 350.543721516927 302.861348470052 260.371939765082 235.870339287652 216.750366210938 199.012449476454 182.561364067925 169.024575127496 155.844852023655 143.934154934353 134.187099880642 126.945880466037 119.858722262912 114.71447330051 109.684410095215 104.01419321696 97.9521679348416 93.8624623616536 89.7973726060655 84.8168589274088 86.3895060221354 84.4474470350477 77.2964850531684 79.0862613254123 86.9209306504991 94.802848815918 99.1285824245877 101.219157748752 100.773246765137 98.2698762681749 96.9911202324761 95.0677753024631 92.4770329793294 89.4878497653537 86.3765470716688 82.5528937445746 79.2782923380534 76.8584518432617 73.9417529635959 70.4875106811523 66.3891682094998 62.5305273267958 59.179433186849 55.5492905510796 51.3868590460883 47.9161953396267 43.8121287027995 40.3804308573405 39.1926027933756 39.7078598870171 38.6738556755914 37.5677473280165 35.7283528645833 34.2583524915907 32.9961530897352 32.3480648464627 31.6114963955349 30.5609936184353 29.3888477749295 28.0451632605659 26.4907701280382 24.6605256398519 24.665974299113 24.0707376268175 23.5564236111111 23.5319097306993 22.8635999891493 22.4610438876682 22.6001620822483 22.6796535915799 22.5850310855442 20.8269636366102 19.9657830132378 20.4933363596598 19.656623840332 19.5961852603489 19.5429729885525 19.4789909786648 19.6376071506076 19.6433917151557 19.7240134345161 20.4459408654107 20.6425041622586 20.6709819369846 20.6552664438883 20.7996982998318 20.5588976542155 19.5708463456896 19.3548032972548 19.5765897962782 19.2027787102593 18.5243286556668 18.2923456827799 18.1731239954631
